ply
format ascii 1.0
element vertex 722
property float x
property float y
property float z
property float nx
property float ny
property float nz
property uchar diffuse_red
property uchar diffuse_green
property uchar diffuse_blue
end_header
3.68362 -1.77631 -1.57931 -0.904777 0.383272 -0.185693 108 110 93
-1.02986 -1.63259 -0.0568551 -0.467114 -0.525733 0.710922 116 117 100
-1.04801 -1.71788 -0.06954 -0.434381 0.268792 0.859688 114 116 98
-1.26136 0.797379 -0.00433666 -0.46075 0.29514 0.837019 77 101 93
-1.44605 -0.107392 0.0500511 -0.836882 0.0656772 0.54343 16 83 77
-1.44083 -0.194093 0.0439958 -0.854621 -0.101725 0.50919 18 85 76
-1.42742 -0.366632 0.0353739 -0.97824 0.204446 0.0353445 19 88 74
-1.4308 -0.390678 0.0462909 -0.81812 -0.469445 0.332117 19 88 74
-1.39638 -0.494957 0.0224542 -0.476669 -0.187975 0.85875 19 88 75
-1.36626 -0.600031 0.01144 -0.94628 -0.322324 -0.0257153 45 95 81
-1.35242 -0.674584 0.00607752 -0.501733 -0.258541 0.825482 117 124 107
-1.31178 -0.717011 -0.00028464 -0.775711 -0.417557 0.4732 94 114 99
-1.32334 -0.74196 -0.000402071 -0.822159 -0.501931 0.268551 128 129 110
-1.30408 -0.741189 0.00622653 -0.717564 -0.395143 0.573555 92 112 98
-1.2915 -0.759516 0.00320187 -0.325896 -0.239235 0.914636 97 114 99
-1.27772 -0.807041 -0.0107931 -0.788564 -0.237119 0.567399 129 129 110
3.64625 -1.88246 -1.59965 -0.757081 0.499473 0.421137 124 126 108
3.62369 -1.93241 -1.61252 -0.352277 0.930155 0.103507 124 125 108
-1.07546 -1.63686 -0.0796398 -0.210118 0.746128 0.631778 123 125 106
-1.07342 -1.71788 -0.0823836 -0.482785 0.279226 0.830031 122 124 106
-1.1294 -1.73185 -0.0657616 -0.617946 -0.546129 0.565584 120 122 104
-1.4722 0.084077 0.0396583 -0.995559 -0.0455291 -0.0823947 13 76 80
-1.44795 -0.286304 0.0121023 -0.971362 -0.236379 0.0240971 21 89 74
-1.4433 -0.309309 0.0119805 -0.987445 -0.136321 0.0798126 22 89 73
-1.44047 -0.334906 0.0134399 -0.789286 -0.220214 0.573179 21 89 73
-1.40914 -0.451057 0.0149196 -0.927722 -0.196029 0.317654 21 89 74
-1.40154 -0.472299 0.0124773 -0.841449 -0.282896 0.460363 23 89 75
-1.41196 -0.488388 0.00646926 -0.512582 -0.219156 0.830199 70 106 90
-1.42017 -0.566166 0.0174056 -0.421578 -0.157522 0.893005 118 126 109
-1.38492 -0.609045 0.00476434 -0.651295 -0.325433 0.685498 123 128 110
-1.3747 -0.628879 0.00276295 -0.604409 -0.297454 0.739061 120 126 109
-1.39977 -0.61775 0.00414845 -0.671815 -0.384123 0.633336 130 131 112
-1.39206 -0.632418 -0.00293702 -0.615491 -0.326919 0.717144 129 128 109
-1.38093 -0.656072 -0.000667663 -0.662678 -0.428768 0.614016 131 131 112
-1.36861 -0.67905 0.00185298 -0.6779 -0.371204 0.634554 129 130 112
-1.07036 -1.68152 -0.0991515 -0.783647 0.0594779 0.618352 122 124 105
-1.47671 0.00880586 0.0197111 -0.874064 -0.0894691 0.477501 16 80 78
-1.47294 0.0232042 0.0129641 -0.883054 0.000282824 0.469271 16 79 78
-1.48895 -0.0377117 0.0156339 -0.330949 0.217689 0.918196 28 85 79
-1.4727 -0.1475 0.0157341 -0.238003 -0.0577319 0.969547 19 85 75
-1.46119 -0.300788 -0.000601023 -0.635572 -0.125907 0.761706 90 113 96
-1.48233 -0.343761 0.00355939 -0.657498 -0.42769 0.620304 129 131 113
-1.38949 -0.592605 -0.0118365 -0.685771 -0.676447 -0.268584 129 129 109
3.62526 -1.88167 -1.69566 -0.609228 0.350568 0.711297 117 119 101
-0.352331 2.09403 -0.395753 -0.884423 -0.202802 0.420317 123 124 106
-1.50405 -0.0149237 -0.0147162 -0.443036 0.230576 0.866345 129 130 113
-1.48187 -0.292103 -0.00955513 -0.2093 -0.12982 0.969196 130 130 113
-1.47279 -0.334805 -0.0149398 -0.854386 -0.130263 0.503047 128 128 111
3.61419 -1.80856 -1.70064 -0.483914 -0.722724 0.493454 115 116 100
3.6201 -1.843 -1.70563 -0.923711 -0.124044 0.362451 117 118 100
3.63314 -1.90199 -1.73357 -0.971038 0.163287 0.174423 119 120 102
-0.349865 2.07133 -0.41667 -0.466484 -0.552578 0.690688 107 113 98
-1.5192 -0.0404827 -0.0105951 -0.271165 0.0761564 0.959515 128 129 112
3.7966 -1.50041 -1.82523 -0.747394 -0.561509 -0.35512 114 116 98
3.80927 -1.53835 -1.81996 -0.582224 -0.453599 0.674732 114 115 98
3.72222 -1.60082 -1.79214 -0.956244 0.273863 -0.102936 119 120 102
3.61447 -1.82426 -1.73863 -0.833386 -0.286272 -0.472775 114 115 97
3.61084 -1.86294 -1.73544 -0.737159 0.667608 -0.104384 121 122 105
3.58698 -2.29926 -1.74196 -0.856259 0.379753 -0.350153 114 116 100
3.5642 -2.33392 -1.7384 -0.309213 0.913612 0.26401 125 126 109
4.14169 -0.218781 -1.98263 -0.647365 -0.449874 0.615249 128 129 112
4.15115 -0.251174 -1.97585 -0.718566 -0.457676 0.523637 128 129 109
3.76491 -1.44227 -1.83169 -0.81125 -0.366968 -0.455201 120 121 103
3.81188 -1.48046 -1.85409 -0.849202 -0.50392 -0.157864 116 117 99
3.56743 -2.11069 -1.77978 -0.945853 -0.0874664 0.312588 122 123 106
3.55377 -2.13493 -1.77069 -0.986087 0.143752 0.0834706 118 119 102
4.14797 -0.258694 -2.02073 -0.768572 -0.38277 0.512625 126 127 110
4.11318 -0.239747 -2.00598 -0.638315 -0.425476 0.641502 126 127 110
3.8012 -1.45792 -1.8883 -0.862435 -0.474093 -0.17732 117 118 100
3.80693 -1.46226 -1.88445 -0.695106 -0.676138 -0.244262 116 117 100
3.57424 -2.04547 -1.82898 -0.981228 -0.124566 0.147223 117 118 101
3.59447 -2.08666 -1.82633 -0.835386 -0.549609 -0.00777665 119 120 103
3.60828 -2.12223 -1.82417 -0.875222 -0.479911 -0.060603 121 122 106
3.60417 -2.16777 -1.82774 -0.937583 0.31108 -0.155458 116 117 100
3.36653 -2.515 -1.76101 -0.833319 0.29234 -0.469166 111 113 96
3.83651 -0.796998 -1.93332 -0.652449 0.136569 0.745425 122 122 104
3.82756 -0.839871 -1.93333 -0.35579 0.677342 0.643912 125 126 108
3.65895 -2.10265 -1.8746 -0.744343 0.64582 -0.169911 115 116 99
3.62066 -2.1549 -1.87393 -0.953628 0.160773 0.254451 115 117 99
3.61177 -2.29359 -1.8573 -0.845675 0.473975 -0.245319 115 116 99
3.46128 -2.63614 -1.81884 -0.186467 0.448835 0.873944 122 124 106
-1.58965 -2.83036 -0.055314 -0.417928 0.852754 0.313283 129 129 111
3.52216 -2.32815 -1.86756 -0.995787 0.0903153 0.015874 118 119 101
3.50838 -2.42729 -1.87432 -0.961359 0.173186 0.214 115 117 99
3.38799 -2.61204 -1.81656 -0.812652 0.159556 0.56048 115 117 99
3.38915 -2.61286 -1.81684 -0.824671 0.158303 0.543008 115 117 99
3.38649 -2.60399 -1.81353 -0.821388 0.157573 0.548172 115 117 99
3.38272 -2.65004 -1.81738 -0.898744 0.381736 -0.215724 115 117 99
3.38084 -2.64744 -1.81642 -0.762874 0.552543 -0.335737 115 117 99
-1.48007 -2.58759 -0.121776 -0.39222 -0.338825 0.855196 126 127 108
-1.46782 -2.6085 -0.122169 -0.50952 -0.518627 0.686597 128 129 111
-1.60608 -2.83139 -0.0751087 -0.38195 0.780833 0.494383 129 129 110
3.5213 -2.26826 -1.91067 -0.514456 -0.447409 0.731547 115 116 99
-1.50291 -2.57492 -0.148291 -0.302816 -0.189156 0.934089 126 126 107
-1.50303 -2.59384 -0.142961 -0.343324 -0.193683 0.91903 112 113 95
-1.47603 -2.68498 -0.15646 -0.38485 -0.261112 0.885274 123 124 105
-1.50976 -2.6981 -0.149681 -0.387732 0.45774 0.800086 131 132 114
-1.56851 -2.75677 -0.125984 -0.543099 0.555485 0.629666 129 129 110
-1.56168 -2.78193 -0.125035 -0.0440434 0.818627 0.572634 124 125 106
-1.63758 -2.83856 -0.090216 -0.41495 0.51693 0.748732 133 134 115
-2.21608 1.42501 0.0840351 -0.586239 -0.469626 0.660133 123 125 109
3.48419 -2.2919 -1.93675 -0.892916 -0.447077 0.0531283 116 118 101
-1.49726 -2.60578 -0.163538 -0.302858 -0.189144 0.934078 116 117 100
-1.50289 -2.63683 -0.162731 -0.701215 -0.213943 0.680092 116 117 99
-1.50427 -2.66226 -0.167948 -0.669709 -0.15514 0.726238 122 123 104
-1.49556 -2.68583 -0.169215 -0.457343 0.306109 0.834946 126 126 109
-1.5415 -2.72007 -0.148076 -0.0974441 0.949707 0.297591 128 129 109
-1.5485 -2.74376 -0.152165 -0.470908 0.597407 0.649116 121 122 103
-1.58147 -2.75749 -0.146988 -0.143413 0.856875 0.495174 123 124 105
-1.61161 -2.76887 -0.134063 -0.12589 0.74331 0.656995 128 128 110
-0.454975 1.78094 -0.561512 -0.333786 0.425443 0.841181 121 122 106
-1.51596 -2.60382 -0.193992 -0.85034 0.468582 0.239482 107 107 89
-1.50351 -2.61894 -0.180809 -0.571854 0.125689 0.810669 103 104 88
-1.51067 -2.64222 -0.183983 -0.607476 0.485169 0.628955 98 100 84
-1.53676 -2.65854 -0.180354 -0.731703 0.305456 0.60935 97 99 83
-1.55761 -2.67673 -0.176221 -0.761018 -0.10835 0.639619 101 102 87
-1.5659 -2.71042 -0.172368 -0.478825 0.61787 0.623669 116 117 99
-1.56283 -2.59163 -0.190947 -0.569776 -0.498813 0.6531 118 119 100
-1.55653 -2.61735 -0.19003 -0.590681 -0.195657 0.782825 112 113 94
-1.56728 -2.669 -0.192479 -0.382595 -0.14037 0.91319 94 95 81
-1.56371 -2.69115 -0.192635 -0.464955 0.616109 0.635788 95 96 82
-0.505554 1.72434 -0.605092 -0.466089 0.65918 0.590121 126 127 110
-1.59612 -2.61453 -0.196962 -0.550249 -0.356662 0.754995 118 120 100
-1.57797 -2.6432 -0.197272 -0.287144 -0.178001 0.941204 114 115 96
-1.57789 -2.6917 -0.21314 -0.51402 0.619172 0.593641 109 111 94
-0.61692 1.37424 -0.596759 -0.151009 -0.165492 0.974581 128 130 113
-0.562669 1.36115 -0.599604 -0.247967 0.292669 0.923503 126 127 110
-0.560225 1.3148 -0.60047 -0.268198 -0.197178 0.942969 125 127 110
3.36646 -2.60492 -2.03984 -0.375103 0.784533 0.493767 128 129 111
3.31192 -2.6246 -2.05814 -0.245716 0.793511 0.556745 129 130 112
-0.755707 1.32719 -0.594377 -0.606921 -0.477014 0.635693 131 132 115
-0.754994 1.32655 -0.595138 -0.663051 -0.476946 0.576963 108 123 108
-0.727335 1.30973 -0.603766 -0.729408 0.542395 0.41686 127 128 112
3.29832 -0.94515 -2.62446 -0.332031 -0.324321 0.88576 123 124 107
3.25687 -0.778153 -2.83877 -0.380558 0.279681 0.88145 124 125 108
-0.717842 3.49096 2.07751 -0.571501 -0.816702 0.0799038 131 132 118
-0.725368 3.48715 2.05193 -0.542465 -0.837134 0.0702692 130 131 117
-0.736124 3.48773 2.02621 -0.551218 -0.834359 -0.00173759 129 130 114
-0.719504 3.48978 2.02559 -0.570614 -0.819565 -0.0520969 130 131 116
-0.749489 3.4953 2.00059 -0.930545 -0.208558 0.300982 129 129 112
-1.52287 -0.0864458 2.08575 0.0965542 -0.993736 -0.0562598 137 137 122
-1.52543 -0.0881011 2.06034 0.100345 -0.994925 -0.00745682 130 130 114
-1.53241 -0.07954 2.07227 0.103904 -0.993515 0.0461721 129 129 113
-1.53651 -0.0816474 2.047 0.10161 -0.99476 -0.0112849 128 129 113
-1.54207 -0.0824857 2.02273 0.0920963 -0.989843 -0.108302 129 129 114
-1.53807 -0.078664 1.99809 0.0940205 -0.991452 -0.0904618 129 129 113
-1.49644 -0.0806042 1.99258 -0.283243 -0.748931 -0.599063 140 138 121
-0.804058 3.47145 1.84359 -0.974288 -0.202843 0.0980725 129 128 108
-1.53568 -0.0617319 1.98339 0.104999 -0.994153 0.0252094 125 125 110
-1.53568 -0.0617319 1.98339 0.104999 -0.994153 0.0252094 125 125 110
-1.54137 -0.0535869 1.954 -0.315808 -0.948049 0.0383143 121 121 102
-1.48676 -0.0754246 1.96816 -0.197149 -0.977611 0.0735465 139 138 121
-1.48507 -0.073769 1.96728 -0.112725 -0.990019 0.0845928 122 118 97
-1.49282 -0.0506427 1.77797 -0.502933 -0.808341 0.306012 126 124 108
-1.46261 -0.0518562 1.77545 -0.524649 -0.780176 0.340688 134 130 114
-1.6346 0.0118539 1.75487 -0.110899 -0.990983 -0.0751924 125 124 109
-1.48253 -0.0432406 1.74556 -0.588551 -0.746376 0.310695 124 122 106
-1.46265 -0.051421 1.75077 -0.593053 -0.745086 0.305181 123 119 100
-1.4907 -0.0527856 1.72972 -0.590263 -0.740429 0.321487 119 118 102
-1.49059 -0.0546475 1.70527 -0.58696 -0.786124 0.193616 129 126 110
-1.52418 -0.04594 1.70503 -0.56802 -0.816176 0.105882 115 113 94
-1.5537 -0.0299165 1.68519 -0.244427 -0.940132 0.2375 117 115 99
-1.48927 -0.0525025 1.68025 -0.353204 -0.909768 0.218106 129 126 110
3.27693 0.378031 1.20189 -0.163227 -0.696691 0.698555 107 110 94
-1.70599 0.0258661 1.6431 0.0131844 -0.793924 0.607874 132 132 113
-1.567 -0.0359521 1.62944 0.107816 -0.994149 0.00663325 117 115 99
-1.48942 -0.0596193 1.62497 -0.587887 -0.783753 0.200299 130 127 111
-0.198169 -0.113934 1.48416 -0.759876 -0.0571947 0.647548 11 46 80
3.09316 0.426837 1.16592 -0.699407 -0.621983 -0.352088 119 118 98
-1.56442 -0.0315596 1.60025 0.0325952 -0.999407 0.011115 118 116 100
-0.316175 -0.0122703 1.46915 -0.544484 -0.393933 0.740509 11 55 80
-0.265912 -0.132257 1.47564 -0.372789 -0.313853 0.873226 11 49 80
-0.252502 -0.346835 1.43348 -0.615548 -0.312215 0.723617 12 53 81
-0.240105 -0.372809 1.43165 -0.135681 -0.607388 0.782733 11 55 81
-0.142289 -0.337142 1.43818 -0.310293 -0.28094 0.90818 12 56 81
-0.739613 3.43186 1.23311 0.104966 -0.99271 -0.059239 120 119 100
-0.474505 -0.0207001 1.42276 -0.630736 -0.352102 0.691517 11 67 80
-0.449414 -0.0649077 1.41085 -0.834206 -0.031923 0.550529 12 65 80
-0.285579 -0.334758 1.42844 -0.707112 -0.441979 0.551948 12 51 81
-0.30749 -0.385039 1.41581 -0.785673 -0.288651 0.547173 12 52 81
-0.774565 3.41603 1.21776 -0.0124571 -0.775305 0.631464 119 118 101
-1.66146 0.0273032 1.51839 0.128566 -0.989279 0.0692658 125 125 107
-0.57666 -0.0381404 1.39858 -0.523591 -0.0140078 0.851854 12 72 81
-0.41588 -0.322783 1.40482 -0.917065 -0.070989 0.392369 12 53 81
-0.391059 -0.31702 1.40235 -0.737776 0.190243 0.647684 12 52 81
-0.047465 -0.569039 1.38389 -0.355223 -0.550782 0.755285 12 69 81
-0.769528 3.41582 1.18336 -0.57233 -0.775311 0.267079 119 118 101
-0.758672 3.38223 1.2012 -0.360508 -0.914715 -0.182567 122 121 103
-1.60121 0.0109493 1.49852 0.118208 -0.991752 0.0495463 122 120 106
-1.60052 0.00831949 1.49819 0.10191 -0.992923 0.060968 122 120 106
-0.530255 0.211963 1.37469 -0.297443 -0.395774 0.868844 13 77 77
-0.577911 0.0268352 1.38112 -0.498881 -0.154149 0.852851 14 75 79
-0.562365 0.00926676 1.37624 -0.41906 -0.151277 0.895268 13 74 79
-0.547283 -0.165447 1.38299 -0.345597 -0.285883 0.893775 12 67 80
-0.467411 -0.22635 1.39415 -0.420481 -0.468383 0.777054 12 60 81
-0.456769 -0.383425 1.3859 -0.323456 -0.44798 0.833481 12 53 81
-0.442396 -0.402275 1.38366 -0.45326 -0.394192 0.79948 12 51 82
-0.3307 -0.483804 1.38905 -0.788281 -0.57789 0.211319 12 55 82
-0.00191093 -0.59972 1.36007 -0.365335 -0.271315 0.89046 13 71 83
-0.787066 3.41406 1.15573 -0.117737 -0.920426 0.372764 119 118 99
-0.720761 3.403 1.17059 -0.572743 -0.817601 0.0591167 128 128 109
-0.701616 3.37854 1.16213 -0.392744 -0.825723 0.404887 131 132 116
-0.6185 -0.0562663 1.35847 -0.296943 -0.380364 0.87587 14 75 79
-0.571025 -0.178026 1.37518 -0.401669 -0.274307 0.873738 12 67 81
-0.541398 -0.251635 1.37102 -0.807713 -0.521515 0.274994 12 63 81
-0.394749 -0.460592 1.37451 -0.504119 -0.241278 0.829246 12 51 82
-0.302104 -0.554624 1.35454 -0.814995 0.15653 0.557927 12 58 82
-0.257697 -0.574213 1.36941 -0.508003 -0.376204 0.774857 12 61 83
-1.66612 0.0209079 1.45718 -0.793705 -0.501747 0.343922 122 125 108
-0.608131 -0.245836 1.34704 -0.626913 -0.186727 0.756382 12 66 81
-0.597348 -0.230747 1.35636 -0.565241 -0.448235 0.692523 12 66 81
-0.600415 -0.267888 1.34815 -0.630093 -0.286194 0.721856 12 65 81
-0.586435 -0.256345 1.35522 -0.869943 -0.327163 0.369004 12 65 81
-0.295462 -0.620628 1.34546 -0.903249 -0.386016 0.187439 12 60 82
-0.234222 -0.639009 1.33935 -0.407356 -0.140833 0.902345 12 64 83
-0.0590969 -0.640365 1.32892 -0.439816 -0.273637 0.855386 12 70 82
3.39081 0.189583 0.872189 -0.595335 0.284304 0.751497 113 114 96
-0.701573 0.0174625 1.32222 -0.801757 -0.278261 0.528919 15 80 76
-0.724413 0.00317875 1.3203 -0.371736 -0.238935 0.897063 15 80 75
-0.655106 -0.213269 1.33933 -0.712715 -0.376419 0.5919 12 69 81
-0.732359 0.00318681 1.29849 -0.767896 -0.281896 0.575214 15 80 75
-0.742194 -0.1043 1.32044 -0.932922 -0.321577 0.162001 13 77 78
-0.608557 -0.283165 1.32213 -0.777334 -0.258804 0.573387 12 65 81
-0.592019 -0.34366 1.32056 -0.716408 -0.392773 0.576618 12 62 81
-0.538809 -0.470172 1.31513 -0.393769 -0.0766541 0.916008 12 57 81
-0.542082 -0.507066 1.31223 -0.243082 -0.345888 0.906241 12 58 82
-0.459751 -0.5165 1.30694 -0.559963 -0.379999 0.736235 12 54 82
-0.465301 -0.572455 1.30529 -0.503375 -0.164662 0.848233 12 54 82
-0.403594 -0.595294 1.31008 -0.487105 -0.741905 0.460766 12 53 82
-0.304298 -0.708436 1.29797 -0.970918 0.0344568 0.236921 13 60 83
3.37463 0.200099 0.822342 -0.686334 0.422381 0.592064 112 113 94
-0.718845 0.156062 1.26535 -0.632841 -0.565525 0.52886 17 82 73
-0.775809 -0.0492259 1.28838 -0.580566 -0.227817 0.781692 15 79 77
-0.759551 -0.1757 1.29592 -0.349675 -0.498036 0.793529 13 74 80
-0.647864 -0.364998 1.3029 -0.517134 -0.394052 0.7598 12 63 82
-0.593932 -0.447851 1.30561 -0.523621 -0.046021 0.850707 12 61 82
-0.562714 -0.467694 1.29406 -0.343588 -0.544558 0.765117 12 59 82
-0.545285 -0.522767 1.29779 -0.295893 -0.343481 0.89133 12 59 82
-0.446676 -0.604354 1.29018 -0.358593 -0.32081 0.876637 12 54 82
-0.453368 -0.666179 1.2925 -0.577295 0.0257934 0.816128 12 59 83
-0.374588 -0.638083 1.28989 -0.319085 -0.282396 0.904675 12 56 83
-0.647631 0.607151 1.20317 -0.353614 -0.261425 0.898117 14 74 78
-0.802325 -0.0319045 1.26697 -0.769984 0.161836 0.617198 15 80 76
-0.786513 -0.130325 1.26865 -0.776866 -0.0802422 0.624532 14 76 79
-0.766703 -0.186143 1.27726 -0.588052 -0.808399 0.0262011 13 73 81
-0.759935 -0.190133 1.27739 -0.759876 -0.636974 0.129816 13 73 81
-0.755235 -0.226351 1.27165 -0.0026021 -0.943297 0.331941 12 71 82
-0.688072 -0.373029 1.2716 -0.557678 -0.450574 0.697122 12 67 81
-0.606357 -0.487625 1.27852 -0.0962808 -0.692013 0.715435 12 63 82
-0.465647 -0.63686 1.28311 -0.610828 -0.0494273 0.790219 12 57 83
-0.706173 0.511967 1.20536 -0.744768 -0.611446 0.26731 16 81 75
-0.827131 -0.0338029 1.26417 -0.0248945 -0.723234 0.690154 15 80 76
-0.818356 -0.0505638 1.25034 -0.356417 -0.720245 0.595159 15 79 77
-0.77851 -0.181225 1.25825 -0.985884 -0.117291 0.11948 13 73 81
-0.736386 -0.36206 1.25959 -0.370047 -0.187065 0.909984 12 71 82
-0.669861 -0.393347 1.25419 -0.651615 0.309656 0.692467 11 68 81
-0.690185 -0.421261 1.25597 -0.705192 0.315395 0.635004 12 68 81
-0.618199 -0.4997 1.26349 -0.62977 -0.314299 0.710357 12 64 82
-0.527582 -0.609048 1.26001 -0.241454 -0.448941 0.860321 13 59 82
-0.458309 -0.697907 1.25396 -0.285855 -0.433689 0.854518 12 62 83
-0.197968 -0.834626 1.22166 -0.36324 -0.334899 0.869425 13 68 84
-0.239223 -0.84921 1.23115 -0.334593 -0.558217 0.759237 13 70 84
-0.782061 3.3181 0.965501 0.306454 -0.949262 -0.0706238 136 136 117
-0.89401 0.0613339 1.22108 -0.264862 -0.753862 0.601282 17 84 74
-0.85285 0.0559434 1.23123 -0.354627 -0.363359 0.861516 17 83 74
-0.862681 0.0646566 1.22347 -0.290146 -0.802552 0.521274 17 84 74
-0.843389 -0.0801142 1.24047 -0.855199 0.192477 0.481235 14 78 78
-0.762526 -0.385821 1.24107 -0.505445 0.0140569 0.862745 12 72 82
-0.69629 -0.423723 1.24255 -0.34801 -0.26858 0.898195 12 69 81
-0.427126 -0.746626 1.22128 -0.411702 -0.320729 0.853015 13 66 83
-0.361163 -0.784978 1.22055 -0.557329 -0.114577 0.822348 12 68 83
-0.836073 0.409562 1.18427 -0.289709 -0.45489 0.842107 17 83 74
-0.909537 0.113523 1.19686 -0.00595737 -0.72977 0.683667 17 85 74
-0.85937 0.0768408 1.20745 -0.240303 -0.667769 0.704513 17 84 74
-0.869994 0.0495344 1.21145 -0.329435 -0.867855 0.371887 17 82 74
-0.863191 -0.0501222 1.20487 -0.830413 -0.521001 0.197415 15 79 78
-0.855763 -0.0746238 1.22436 -0.745076 -0.643958 0.173724 14 78 78
-0.848772 -0.0565749 1.22015 -0.840019 -0.401118 0.365339 15 79 78
-0.799834 -0.288174 1.22386 -0.442311 -0.201644 0.8739 13 74 81
-0.805995 -0.319334 1.22842 -0.25667 -0.291353 0.921539 13 74 80
-0.715004 -0.448603 1.23451 -0.351794 -0.303263 0.885592 12 70 82
-0.459715 -0.720641 1.2115 -0.385457 -0.300165 0.872539 13 65 83
-0.195716 -0.899414 1.19676 -0.270075 -0.370765 0.88859 13 74 84
3.1524 -0.0362068 0.677454 -0.869313 -0.144461 0.472679 108 109 91
3.15804 -0.0691588 0.681412 -0.726785 -0.126841 0.675052 90 92 80
-0.902699 0.051639 1.18706 -0.870841 0.268571 0.411711 17 82 74
-0.889274 -0.0171073 1.1898 -0.909152 -0.206478 0.361676 15 80 77
-0.911783 -0.0875236 1.19817 -0.351302 -0.442679 0.824998 15 78 78
-0.882949 -0.177548 1.20601 -0.156335 -0.718099 0.678154 14 77 79
-0.741399 -0.481234 1.21113 -0.460195 -0.561743 0.687507 13 73 82
-0.335164 -0.826654 1.18919 -0.431433 -0.686584 0.585208 13 71 83
-0.166641 -0.942138 1.16506 -0.448786 -0.309104 0.838478 14 77 84
3.12642 -0.046415 0.658693 -0.747765 -0.0783519 0.659325 118 119 102
-0.790688 3.34966 0.898964 0.306948 -0.9492 -0.0692977 125 124 102
-0.840652 -0.366422 1.19134 -0.715359 -0.0437835 0.697384 14 78 79
-0.352308 -0.873495 1.15389 -0.612457 -0.534998 0.581956 13 75 84
0.352426 -1.0115 1.07081 -0.587437 -0.284026 0.757791 109 117 104
0.359308 -1.03504 1.07319 -0.804311 0.365183 0.468749 130 130 111
-0.931066 0.358903 1.1256 -0.575938 0.0884256 0.812697 16 81 76
-0.938828 0.0931861 1.14451 -0.871267 -0.242443 0.426749 16 81 74
-0.942155 0.0138271 1.15232 -0.657541 -0.401073 0.637793 16 81 76
-0.924265 -0.0187254 1.16101 -0.998028 0.0621488 0.00877419 15 80 76
-0.805501 -0.443372 1.15779 -0.367098 -0.241623 0.898253 14 77 80
-0.784016 -0.443632 1.16667 -0.379098 -0.217182 0.899509 14 76 81
-0.804451 -0.477309 1.16882 -0.498067 0.0219845 0.86686 15 77 80
-0.721744 -0.56866 1.16925 -0.959692 -0.0139618 0.280705 13 73 83
-0.567779 -0.73318 1.15486 -0.313942 -0.29524 0.902371 12 67 83
-0.453329 -0.837205 1.14014 -0.442175 -0.293855 0.847426 13 73 83
-0.37287 -0.876651 1.14108 -0.238015 -0.349216 0.90631 13 76 84
-0.271516 -0.916001 1.13858 -0.512773 -0.371204 0.774126 14 78 83
-0.19241 -0.93215 1.13025 -0.279283 -0.569955 0.772756 15 79 83
-0.137094 -0.974182 1.11917 -0.384457 -0.632828 0.672102 15 81 81
0.346602 -1.03431 1.05262 -0.416098 -0.460595 0.784037 108 116 102
0.34861 -1.05259 1.05691 -0.906125 -0.422972 0.00565454 130 131 112
-0.816779 0.667316 1.0565 -0.527169 -0.20826 0.823845 16 82 76
-0.926179 -0.287675 1.15638 -0.537655 -0.174369 0.824938 16 82 76
-0.867745 -0.38419 1.15644 -0.796306 -0.511851 0.322344 15 79 78
-0.832299 -0.452936 1.14387 -0.129728 -0.503381 0.85427 14 78 79
-0.831508 -0.476894 1.14436 -0.563828 -0.0852526 0.82148 14 78 79
-0.805534 -0.456369 1.15337 -0.565416 -0.056762 0.82285 14 78 80
-0.792139 -0.52925 1.15829 -0.810618 -0.408718 0.419342 14 76 81
-0.71929 -0.579857 1.14983 -0.828223 -0.552104 -0.0960603 13 73 83
-0.451351 -0.890747 1.14301 -0.632644 -0.555054 0.540071 14 76 84
0.327286 -1.02997 1.03526 -0.54498 -0.791543 0.276509 17 68 76
0.338434 -1.06001 1.03295 -0.416835 -0.45878 0.78471 96 110 99
-0.941686 -0.26174 1.11656 -0.511174 -0.14334 0.84744 17 84 75
-0.846582 -0.47471 1.13478 -0.585237 -0.0986799 0.804835 15 79 79
-0.555803 -0.784662 1.11998 -0.911484 -0.292391 0.289317 13 71 83
-0.513001 -0.819624 1.11443 -0.839751 -0.508112 0.191417 13 73 84
-0.463008 -0.878426 1.10509 -0.460946 -0.845031 0.27102 14 77 84
0.326464 -1.08422 1.01504 -0.675083 -0.182528 0.714805 110 118 105
0.311407 -1.10142 1.02476 -0.857907 -0.300866 0.416504 126 127 110
-1.00014 0.380981 1.04856 -0.502914 -0.173847 0.846673 13 74 80
-0.998486 0.223349 1.08286 -0.569433 -0.238803 0.786587 15 79 75
-0.993556 -0.226858 1.09823 -0.93038 -0.331179 -0.157205 18 86 73
-0.933054 -0.353253 1.10448 -0.41008 -0.038928 0.911218 17 84 75
-0.917107 -0.341907 1.10471 -0.388986 -0.214252 0.895983 17 83 76
-0.56326 -0.796443 1.09838 -0.283792 -0.231893 0.930423 14 72 84
-0.455155 -0.912723 1.08717 -0.816003 -0.488391 0.309215 15 79 81
-0.3952 -0.949151 1.09255 -0.372296 -0.37333 0.849718 16 81 81
-0.26795 -0.995435 1.07645 -0.497247 0.0044539 0.867598 17 85 80
2.67827 -0.880911 0.620853 -0.713486 -0.0995823 0.693557 118 119 100
-0.920105 0.615085 0.99371 -0.816692 -0.083566 0.570991 16 82 75
-1.0384 0.111603 1.07477 -0.980044 -0.18705 0.0672759 17 84 75
-1.01657 -0.287437 1.09125 -0.726174 -0.322055 0.607414 19 87 73
-0.921501 -0.405122 1.08727 -0.821743 0.0990495 0.561184 17 84 75
-0.652841 -0.667949 1.08432 -0.868987 0.0923218 0.486147 13 71 83
-0.440678 -0.965252 1.0687 -0.85903 -0.486777 0.158479 16 83 81
0.300266 -1.12367 0.981217 -0.42796 -0.378175 0.820873 108 116 103
-0.992289 0.500496 0.996492 -0.677903 -0.310651 0.66629 14 78 78
-1.02877 0.434455 1.0017 -0.931676 -0.165308 0.323501 14 75 80
-1.01951 -0.307851 1.07106 -0.753364 -0.0873964 0.651771 19 88 73
-0.988995 -0.366059 1.06724 -0.62443 -0.275063 0.731045 19 87 74
-0.426289 -0.967429 1.03457 -0.798087 -0.565986 0.206682 17 84 80
-0.367621 -0.997881 1.04006 -0.377641 -0.91474 0.14366 17 86 79
0.149562 -1.13104 0.979266 -0.477884 -0.855824 0.197972 16 83 79
0.18042 -1.14623 0.965514 -0.595379 -0.792481 0.132276 16 82 81
0.297417 -1.13374 0.952485 -0.453463 -0.494768 0.741334 72 97 91
2.70339 -0.676031 0.542453 -0.390167 0.048108 0.919486 123 123 105
-1.12869 0.109888 1.0343 -0.791262 -0.610273 0.03837 16 81 73
-0.544008 -0.832026 1.01902 -0.32115 -0.378958 0.867902 14 77 83
-0.524078 -0.865078 1.02166 -0.344464 -0.25547 0.903371 14 78 83
-0.485322 -0.940141 1.01845 -0.769846 -0.252152 0.586308 16 82 81
-0.40947 -0.971512 1.02183 -0.689159 -0.723689 0.036524 16 85 79
-0.448086 -0.978898 1.01624 -0.525836 -0.809313 0.261742 17 86 79
-0.391744 -0.987024 1.02033 -0.689988 -0.72286 0.037286 18 86 79
-1.08177 0.485757 0.977829 -0.787291 -0.207432 0.580642 15 79 77
-1.09505 0.27991 0.990799 -0.911722 0.0727977 0.404305 14 78 78
-1.11833 0.131831 1.01042 -0.221068 -0.740274 0.63492 17 83 75
-1.12821 0.0966638 1.01463 -0.909356 -0.403336 0.101937 17 85 75
-0.611136 -0.898294 1.021 -0.584337 -0.467066 0.663626 14 77 83
-1.08767 0.490313 0.938768 -0.916199 0.390361 0.0905393 15 79 78
-1.15847 0.106692 0.999297 -0.676131 -0.148857 0.721587 16 81 74
-1.14023 0.0932854 0.998233 -0.651573 -0.744161 0.147232 17 82 73
-1.14023 0.0932854 0.998233 -0.651573 -0.744161 0.147232 17 82 73
-1.06805 -0.337719 1.00728 -0.809514 -0.560196 0.17569 18 89 71
-0.931075 -0.586355 1.01614 -0.412902 -0.667668 0.61946 16 81 78
-0.81598 -0.712399 1.00922 -0.729557 -0.639911 0.241375 13 73 83
-0.678594 -0.878676 1.00296 -0.766567 -0.602118 0.223224 13 75 84
-0.67334 -0.904131 0.997372 -0.766486 -0.614395 0.18713 14 77 84
-0.580217 -0.925208 0.984588 -0.50188 -0.0214329 0.864672 15 80 81
-0.558882 -0.929331 0.998513 -0.750593 -0.442466 0.49075 15 81 81
-0.573318 -0.963372 0.986316 -0.944358 -0.282241 0.168903 16 83 81
-0.554313 -0.959738 1.00352 -0.733442 -0.0348021 0.678861 16 82 80
-0.508501 -0.988835 0.988508 -0.782356 -0.595524 0.182401 17 85 79
-0.66906 -0.915257 0.977972 -0.665562 -0.14254 0.732605 14 77 83
-0.571104 -0.968932 0.964656 -0.793563 0.163988 0.585975 17 83 81
-0.56617 -0.992056 0.965819 -0.82295 -0.426957 0.37478 17 84 80
-0.53516 -0.989433 0.980319 -0.373141 -0.426487 0.823938 17 84 79
-0.551113 -1.0102 0.964889 -0.769333 -0.0209123 0.638506 17 86 79
-0.506532 -1.02182 0.968756 -0.684977 -0.190612 0.703188 18 86 78
-0.384401 -1.06116 0.961769 -0.754589 -0.638935 0.149523 19 90 77
-0.890098 0.848286 0.839816 -0.784026 0.100279 0.612574 18 88 71
-1.07532 0.507827 0.894759 -0.995385 -0.0433829 0.0856003 14 78 78
-1.14768 0.206326 0.928411 -0.594308 -0.19639 0.779891 15 80 76
-1.13826 0.111822 0.95376 -0.417429 -0.530916 0.737484 17 83 74
-1.08046 -0.342233 0.967264 -0.828494 -0.236841 0.507449 19 89 73
-1.09192 -0.51477 0.986715 -0.696213 -0.634274 0.336131 18 85 75
-0.971507 -0.580719 0.984773 -0.292847 -0.58943 0.75287 16 82 78
-0.903628 -0.62156 0.964615 -0.478524 -0.146597 0.865751 15 79 79
-0.895993 -0.646154 0.964904 -0.926907 -0.348636 0.138915 14 78 81
-0.853831 -0.734243 0.974984 -0.0167972 -0.997042 0.0749951 13 73 83
-1.1489 0.263022 0.916038 -0.702634 -0.40489 0.585123 14 78 79
-1.04607 -0.522878 0.955222 0.0295198 -0.83221 0.553674 18 85 76
-1.00261 -0.519784 0.96415 -0.396952 -0.485236 0.779086 17 84 75
-0.910159 -0.62043 0.960501 -0.908593 -0.417325 0.0172994 15 79 80
-0.689487 -0.927388 0.936822 -0.806467 -0.542162 -0.235947 14 77 84
-0.645019 -0.977614 0.936811 -0.268859 -0.843459 0.465072 15 81 81
-0.598453 -0.99224 0.933709 -0.271272 -0.893351 0.358239 17 83 81
-0.585935 -0.99551 0.943011 -0.545235 -0.63678 0.545189 17 83 81
-1.10603 0.491539 0.853725 -0.848832 -0.41762 0.324156 14 77 79
-1.18219 0.173797 0.907735 -0.313673 -0.423798 0.849708 15 79 77
-1.19055 0.152092 0.907679 -0.774856 0.302347 0.555144 16 81 77
-1.15279 -0.0320724 0.922286 -0.173121 -0.381455 0.908032 19 87 73
-1.18506 -0.0913467 0.91426 -0.68396 -0.72536 0.0777902 19 87 74
-1.16527 -0.090846 0.927004 -0.752765 -0.320853 0.574802 19 87 72
-1.15115 -0.115942 0.92193 -0.59092 -0.401597 0.699667 20 88 73
-1.12969 -0.480091 0.963622 -0.776686 -0.583267 0.23782 18 85 75
-1.11741 -0.521717 0.943973 -0.576355 -0.759561 0.301467 17 84 76
-1.05752 -0.542937 0.938349 0.0284284 -0.827411 0.560877 17 84 77
-1.07675 -0.536165 0.948144 -0.310761 -0.399407 0.862497 17 83 77
-1.02541 -0.582348 0.936075 -0.90975 -0.411893 0.0519592 16 82 78
-0.933172 -0.636558 0.926508 -0.70611 0.202254 0.678603 15 79 80
-0.902615 -0.61804 0.93406 -0.730646 -0.664866 0.155271 14 78 80
-0.892368 -0.757459 0.949635 -0.404274 -0.483148 0.776615 13 72 83
-0.884182 -0.765962 0.930362 -0.594461 -0.625482 0.50536 13 71 83
-0.640629 -0.989506 0.918506 -0.673408 -0.722703 0.155636 16 81 81
-0.587393 -1.00817 0.922083 -0.855297 -0.381623 0.350474 17 84 81
-0.11382 -1.16449 0.853221 -0.452578 -0.686558 0.569044 19 90 77
-1.20498 0.239891 0.876001 -0.771481 -0.043594 0.634757 14 75 81
-1.19939 0.103049 0.883988 -0.757338 -0.650765 0.054261 16 81 77
-1.1705 -0.10746 0.910402 -0.699864 -0.370357 0.610758 19 87 73
-1.20188 -0.274052 0.913351 -0.84986 -0.408648 0.332784 18 86 74
-1.1917 -0.294049 0.91307 -0.937904 -0.336353 0.0848728 19 87 74
-1.07474 -0.567542 0.923512 -0.0476967 -0.794246 0.605721 16 82 78
-1.03956 -0.552359 0.930109 -0.197743 -0.692172 0.694115 17 83 78
-1.04995 -0.604468 0.921639 -0.589708 -0.779239 0.212208 16 81 79
-0.883601 -0.757246 0.921721 -0.568558 -0.575705 0.587627 13 71 83
-0.885702 -0.816611 0.913683 -0.886641 -0.44052 -0.140748 13 68 83
-0.815226 -0.912155 0.919269 -0.462541 -0.860273 0.214443 13 71 84
0.110436 -1.26653 0.785525 -0.310032 -0.272194 0.910928 15 79 85
-1.23587 -0.0317367 0.874357 -0.776761 -0.077406 0.625021 16 82 77
-1.17391 -0.157484 0.876479 -0.956046 0.286137 -0.0640497 18 86 75
-1.0814 -0.564669 0.908673 0.03181 -0.83192 0.553983 16 82 78
-0.832688 -0.912892 0.90784 -0.286541 -0.889374 0.356241 13 69 83
-0.649271 -1.01127 0.883073 -0.453462 -0.890952 -0.0240285 15 80 82
-0.659122 -1.01452 0.885848 -0.430889 -0.902307 0.0132686 15 80 82
-0.596485 -1.03665 0.864005 -0.839984 -0.132859 0.526095 16 82 81
-1.20425 0.35123 0.826382 -0.512162 -0.00228006 0.858886 12 68 81
-1.20464 -0.0823313 0.868795 -0.642743 -0.247213 0.725098 17 85 75
-1.16741 -0.362933 0.879919 -0.788506 -0.45484 -0.413979 18 86 75
-1.12466 -0.440094 0.876144 -0.923432 0.286423 0.255414 17 84 76
-1.09039 -0.564922 0.89656 0.0327342 -0.830195 0.556511 16 81 78
-1.0282 -0.609638 0.887772 -0.928617 0.101361 0.356928 15 79 79
-0.773432 -0.950479 0.875937 -0.722987 -0.479121 0.497728 13 73 84
-0.682494 -0.993003 0.857194 -0.784742 -0.46378 0.411202 14 77 84
-0.634068 -1.02127 0.861189 -0.798076 -0.447315 0.403714 15 81 82
-1.23612 0.0150519 0.829025 -0.60774 -0.254688 0.752188 15 79 78
-1.15875 -0.397509 0.861489 -0.780037 0.137843 0.610362 17 84 76
-1.12794 -0.457146 0.854123 -0.352606 -0.613915 0.706242 17 83 78
-0.988392 -0.689139 0.863319 -0.933486 -0.337067 0.122429 13 74 83
-0.965636 -0.754451 0.865775 -0.78576 0.218465 0.578666 12 69 81
-0.905879 -0.802986 0.857835 -0.18423 -0.332474 0.924943 14 67 83
-0.820268 -0.917113 0.849162 -0.717904 -0.603994 0.346129 13 69 84
-0.811242 -0.961139 0.856223 -0.670094 -0.723655 0.16522 13 71 84
-0.766778 -0.96112 0.856755 -0.613035 -0.75676 0.226941 14 73 84
-0.780029 -0.970058 0.855398 -0.690898 -0.70904 0.141146 13 73 84
-0.721283 -0.991229 0.853071 -0.665585 -0.0333791 0.745576 13 76 84
-0.641557 -1.04186 0.843369 -0.784632 -0.0790807 0.614897 15 80 82
-0.194426 -1.21216 0.784778 -0.321918 -0.941131 -0.103155 18 87 80
-0.185738 -1.24224 0.786259 -0.874233 -0.451077 -0.179572 17 86 81
-1.2658 0.124059 0.800334 -0.59863 -0.263441 0.756466 13 72 82
-1.21013 -0.344121 0.837559 -0.514773 -0.161434 0.84199 16 81 78
-1.20382 -0.362633 0.842467 -0.586187 -0.293051 0.755318 16 81 78
-1.13957 -0.476614 0.852735 -0.281991 -0.693012 0.663487 16 82 78
-0.977486 -0.777027 0.849687 -0.74694 0.352135 0.563987 13 67 83
-0.655623 -1.04014 0.814395 -0.875776 -0.0190588 0.482342 14 78 85
-0.245632 -1.17148 0.748044 -0.507276 -0.623718 0.594682 18 88 80
-0.0952151 -1.27194 0.743866 -0.38599 -0.777175 0.497001 16 81 84
-0.666942 1.26301 0.539392 -0.559796 -0.370477 0.741198 87 108 91
-1.23124 -0.213755 0.808948 -0.42635 -0.144302 0.892974 16 81 78
-1.08592 -0.615555 0.819256 -0.690294 -0.147244 0.708388 13 75 82
-1.07893 -0.665126 0.838052 -0.0347616 -0.826835 0.56137 13 74 83
-0.596804 -1.10783 0.777358 -0.404361 -0.876559 0.261029 15 79 84
-0.553069 -1.13335 0.773845 -0.679124 -0.178805 0.711913 15 80 83
-0.525073 -1.1431 0.770927 -0.411784 -0.445305 0.79507 16 81 83
-0.408363 -1.20776 0.759958 -0.646658 -0.543095 0.535613 16 83 82
-1.14548 -0.503938 0.798135 -0.887348 -0.231678 0.398672 14 78 81
-1.11976 -0.542762 0.809711 -0.87281 -0.48003 -0.0881768 14 77 81
-1.08233 -0.664259 0.804299 -0.199808 -0.673049 0.712097 13 72 83
-0.591107 -1.11781 0.756402 -0.636378 -0.567837 0.522095 14 78 85
-0.57372 -1.171 0.764588 -0.469299 -0.7307 0.495818 14 77 86
0.0844206 -1.34363 0.675956 -0.409696 -0.634141 0.655755 14 69 86
-1.13148 -0.546275 0.773637 -0.818178 -0.264501 0.510514 13 75 82
-1.06544 -0.703088 0.781325 -0.99308 0.111132 -0.037978 13 69 83
-1.02458 -0.696711 0.779355 -0.81668 -0.249127 0.520547 13 70 83
-0.699153 -1.05373 0.761559 -0.33898 -0.938158 0.0703762 13 73 85
-0.663596 -1.08261 0.76411 -0.818219 -0.530344 -0.221929 14 75 85
-1.29469 -0.0170297 0.737224 -0.16767 -0.35212 0.920814 12 70 82
-1.28699 -0.116996 0.743114 -0.49384 -0.17527 0.851706 13 73 82
-1.27648 -0.136989 0.748405 -0.387878 -0.171051 0.9057 13 74 82
-1.06087 -0.685078 0.759402 -0.843416 -0.260111 0.470097 13 68 83
-0.894225 -0.933961 0.754639 -0.681119 -0.731188 -0.0379589 13 65 85
-0.803487 -1.00155 0.748614 -0.709359 -0.295563 0.639884 14 66 84
-0.821818 -1.00005 0.742409 -0.437304 -0.788622 0.432251 13 66 84
-0.604491 -1.16943 0.72121 -0.558305 -0.804734 0.201741 14 74 85
-0.517127 -1.20073 0.72506 -0.335694 -0.721965 0.605042 14 76 86
-1.26209 -0.265594 0.737707 -0.657816 -0.640873 -0.395677 13 76 83
-1.07149 -0.675789 0.74129 -0.364854 -0.818752 0.443314 13 67 83
-1.02896 -0.745399 0.740992 -0.794592 -0.340714 0.502532 13 64 83
-0.770358 -1.04065 0.712886 -0.81083 -0.549206 -0.202305 13 67 85
-0.715791 -1.06979 0.718249 -0.666705 -0.667842 -0.330896 13 70 84
-1.18864 0.681698 0.57889 -0.65635 -0.0627914 0.751839 13 72 83
-1.18864 0.681698 0.57889 -0.65635 -0.0627914 0.751839 13 72 83
-1.24296 0.546606 0.614421 -0.679015 -0.644863 0.350843 12 66 82
-1.30211 -0.0813171 0.691951 -0.937848 -0.0540236 0.342816 13 71 82
-1.29645 -0.172093 0.69517 -0.980619 -0.195596 -0.0113251 14 74 83
-1.10292 -0.682172 0.730782 -0.309593 -0.789453 0.530015 13 65 82
-1.29974 0.295516 0.631618 -0.708832 -0.700686 0.0812177 12 58 82
-1.30406 -0.149176 0.693547 -0.627187 -0.448684 0.636648 13 73 83
-1.19507 -0.526575 0.714479 -0.942503 -0.264438 0.204354 14 74 84
-1.14553 -0.679047 0.709953 -0.898693 -0.431358 0.0792529 13 68 83
-0.959263 -0.869609 0.701055 -0.749804 -0.63955 -0.169614 13 65 84
-0.778342 -1.06628 0.681318 -0.52012 -0.428883 0.738603 13 67 84
-0.436317 -1.27419 0.648196 -0.628791 -0.678862 0.379168 14 71 86
-0.399134 -1.29161 0.636251 -0.565765 -0.391106 0.72591 14 69 87
-0.261076 -1.34824 0.609797 -0.375751 -0.654558 0.656021 14 65 86
0.156797 -1.37907 0.54064 -0.74556 -0.662634 0.0711121 14 75 86
-1.25828 0.500927 0.585885 -0.497956 -0.0862849 0.862899 12 67 82
-1.22921 -0.467965 0.677116 -0.364438 -0.712987 0.599028 13 76 83
-0.950751 -0.894867 0.672376 -0.765191 -0.256042 0.590699 13 67 83
-0.816413 -1.05141 0.665961 -0.31247 -0.277175 0.90859 13 70 84
-0.801721 -1.06247 0.65861 -0.376544 -0.181493 0.908446 13 70 84
-0.295467 -1.33758 0.604796 -0.322765 -0.647246 0.690576 14 65 87
-0.273158 -1.34829 0.594355 -0.48383 -0.705723 0.517555 14 64 87
0.148195 -1.38199 0.501682 -0.247668 -0.448196 0.858942 14 77 87
-1.29896 0.450683 0.562882 -0.758349 -0.450582 0.471045 12 68 82
-1.33776 -0.159215 0.654115 -0.188832 -0.620686 0.76098 13 73 84
-1.0494 -0.821819 0.658071 -0.503365 -0.640143 0.580379 13 71 83
-0.759797 -1.08251 0.636325 -0.251463 -0.513604 0.820352 13 72 85
-0.724112 -1.13726 0.640686 -0.979203 0.0389661 -0.199107 14 72 85
-0.113154 -1.38225 0.534394 -0.415087 -0.796219 0.440157 14 62 86
-0.0913194 -1.38266 0.524749 -0.0948779 -0.672432 0.734053 14 64 86
-1.36992 -0.0698737 0.609848 -0.421152 -0.906681 0.0236701 12 69 81
-1.34172 -0.123266 0.617924 -0.495947 0.0303625 0.867822 13 73 83
-1.33969 -0.14359 0.627846 -0.845994 -0.0606436 0.529733 13 73 83
-0.986862 -0.909267 0.644117 -0.241763 -0.200703 0.949352 13 72 83
-0.944082 -0.961652 0.633642 -0.298334 -0.0574396 0.952732 13 74 83
-0.108859 -1.3926 0.513917 -0.6135 -0.682876 0.396609 14 64 87
-1.38443 0.136882 0.581588 -0.823552 -0.504725 0.258872 12 59 82
-1.35572 -0.0840354 0.598933 -0.50685 -0.835976 0.210352 13 71 82
-1.35236 -0.108447 0.603944 -0.555758 -0.0858356 0.826901 12 71 81
-1.29693 -0.35138 0.616281 -0.800493 -0.0630987 0.596011 14 76 82
-1.13888 -0.675424 0.622437 -0.698942 0.27761 0.6591 13 70 82
-1.17933 -0.723594 0.624445 -0.408233 -0.371429 0.833898 13 75 83
-1.15759 -0.711263 0.627337 -0.334824 -0.478137 0.811959 13 72 83
-1.0016 -0.897267 0.610345 -0.379967 -0.638383 0.669397 13 76 83
-0.963575 -0.974341 0.6116 -0.823769 -0.130691 0.551656 14 78 82
-0.886056 -1.04072 0.611609 -0.850579 0.0225065 0.525366 15 78 83
-0.714398 -1.16976 0.593933 -0.354457 -0.524582 0.774063 14 77 85
-0.549319 -1.2879 0.569631 -0.809078 -0.253872 0.53004 14 73 86
-0.141728 -1.37749 0.494311 -0.261358 -0.28143 0.923303 14 62 87
-0.0995054 -1.39787 0.490384 -0.826343 -0.552045 0.111369 14 65 86
-0.0729971 -1.40809 0.480782 -0.32776 -0.66591 0.670177 14 68 86
-1.38301 0.11295 0.546295 -0.506262 0.140296 0.850891 13 59 83
-1.36441 -0.181795 0.587057 -0.459619 -0.838699 0.29212 13 72 82
-1.18246 -0.709514 0.619681 -0.357249 -0.500719 0.78845 13 74 83
-1.11267 -0.818921 0.607023 -0.814926 -0.578564 0.0340387 14 77 82
-1.07693 -0.828281 0.610678 0.00804967 -0.740003 0.672555 13 76 83
0.173636 -1.40949 0.419157 -0.712853 -0.627179 0.313826 16 81 84
-1.35185 0.474797 0.476707 -0.646312 -0.660406 0.382288 15 78 77
-1.34317 0.313555 0.489478 -0.827072 0.20032 0.525189 12 68 81
-1.40057 0.108208 0.534323 -0.434438 -0.12086 0.892556 13 59 83
-1.36764 0.0731989 0.539872 -0.658435 -0.647731 0.383285 12 63 83
-1.40108 0.0722305 0.538261 -0.33113 -0.0974336 0.938541 12 60 82
-1.37022 -0.228824 0.575454 -0.61547 -0.224128 0.755622 13 71 81
-1.35324 -0.241148 0.558911 -0.700237 -0.19063 0.687988 13 72 82
-1.32574 -0.33352 0.580496 -0.811783 0.294304 0.504374 12 75 83
-1.30048 -0.410503 0.577985 -0.522701 -0.51553 0.67898 13 76 83
-1.20546 -0.61821 0.581204 -0.975186 0.0310297 0.219204 13 72 83
-1.18666 -0.758061 0.592264 -0.29973 -0.469953 0.830244 15 79 81
-1.05978 -0.882372 0.587302 -0.535312 -0.015148 0.844519 15 80 79
-1.02781 -0.890155 0.573986 -0.51106 -0.00541121 0.859528 15 80 80
-0.933738 -1.07775 0.591226 -0.463082 -0.345361 0.81626 17 84 79
-0.725493 -1.17227 0.550187 -0.795101 -0.604396 -0.0501962 15 80 83
-0.7163 -1.17952 0.549679 -0.874076 -0.247211 0.418184 15 80 83
-0.713044 -1.1878 0.551705 -0.659878 -0.129296 0.740165 15 80 83
-0.666606 -1.23306 0.539417 -0.442036 -0.72546 0.527553 15 80 84
-1.35168 0.448989 0.448813 -0.733106 -0.549553 0.400684 14 78 79
-1.34499 0.438879 0.455268 -0.84129 -0.185263 0.507847 14 76 80
-1.40915 0.118911 0.518667 -0.697262 0.120614 0.706596 12 60 82
-1.37656 -0.161586 0.551214 -0.748946 -0.132253 0.6493 13 70 82
-1.40778 -0.228261 0.55424 -0.865679 -0.273196 0.41948 13 69 82
-1.33046 -0.295198 0.558474 -0.771141 -0.365378 0.521383 13 74 84
-1.29906 -0.466863 0.559539 -0.314326 -0.321593 0.893184 13 74 83
-1.19991 -0.699058 0.573428 -0.481722 -0.850619 0.210695 13 76 82
-1.12618 -0.79403 0.563493 -0.576786 -0.0721565 0.813703 15 80 80
-1.01725 -0.958219 0.561224 -0.315345 -0.345935 0.883678 17 83 78
-0.674667 -1.25306 0.526523 -0.632507 -0.75563 -0.17017 15 80 83
-0.168895 -1.41938 0.437434 -0.69521 -0.701953 0.154741 14 63 86
-1.34624 0.518174 0.425092 -0.855939 -0.504799 -0.112011 15 81 75
-1.35095 0.42674 0.434446 -0.886092 0.0104729 0.463392 14 76 80
-1.34743 -0.272448 0.519502 -0.521139 -0.769622 0.368912 13 72 83
-1.22509 -0.706956 0.544985 -0.762119 -0.493447 -0.419147 15 79 81
-0.982643 -1.02469 0.552427 -0.214401 -0.181968 0.959646 18 85 77
-0.98765 -1.06716 0.537235 -0.23203 -0.759236 0.608048 18 87 77
-0.871225 -1.09164 0.515394 -0.790881 -0.282637 0.542792 18 86 78
-0.780722 -1.15782 0.524449 -0.754081 -0.415112 0.508964 17 84 81
-0.678442 -1.2599 0.51024 -0.162062 -0.974506 -0.155156 16 81 83
-0.59318 -1.28085 0.477443 -0.28724 -0.933556 0.214395 15 79 85
-0.555786 -1.29278 0.482603 -0.403332 -0.910895 -0.0871413 14 77 87
-0.555507 -1.32592 0.479096 -0.990381 0.0441107 0.131148 14 74 85
-0.434664 -1.34624 0.468426 -0.497558 -0.722931 0.479381 14 71 87
-0.352864 -1.38007 0.452148 -0.274791 -0.952213 -0.133344 14 66 87
-0.310828 -1.38622 0.439723 -0.362353 -0.922729 0.13142 14 64 87
-1.3055 0.584912 0.379266 -0.708204 -0.616426 0.344189 17 84 75
-1.33974 -0.282508 0.495141 -0.440733 -0.307665 0.843265 13 72 83
-1.33083 -0.366373 0.519916 -0.387851 -0.714106 0.582772 13 73 83
-1.31696 -0.468394 0.522139 -0.810646 -0.570346 0.132508 13 72 83
-1.23038 -0.6685 0.528603 -0.766728 -0.444473 0.463219 14 78 81
-1.22729 -0.666223 0.538414 -0.649365 -0.0595489 0.758142 14 77 81
-1.04358 -0.960394 0.51623 -0.722952 -0.152659 0.673822 18 86 76
-0.904115 -1.0753 0.510058 -0.330525 -0.422226 0.844085 18 87 77
-1.39871 -0.257707 0.485342 -0.44391 -0.83819 0.31683 12 67 82
-1.37172 -0.316603 0.492372 -0.2993 -0.313682 0.901123 12 69 82
-1.3633 -0.337638 0.491137 -0.463374 -0.816713 0.343896 12 70 82
-1.29668 -0.447534 0.501849 -0.924452 -0.327032 0.196057 14 72 83
-1.29893 -0.658516 0.517031 -0.886961 -0.369995 0.276411 14 77 81
-1.24802 -0.680626 0.50237 -0.346612 -0.793308 0.500521 15 79 80
-1.24198 -0.686595 0.518986 -0.245261 -0.817622 0.520903 15 80 80
-1.21327 -0.700839 0.510631 -0.327873 -0.75238 0.571334 15 80 79
-1.1479 -0.840235 0.518134 -0.42042 -0.89905 0.122299 17 84 77
-1.07628 -0.871896 0.495956 -0.173924 -0.69091 0.701708 18 86 77
-1.06274 -0.889166 0.495887 -0.731617 -0.565815 0.380249 18 86 76
-0.899902 -1.07251 0.475167 -0.469923 -0.673119 0.571037 18 88 77
-0.889025 -1.10223 0.484494 -0.79895 -0.342753 0.494166 18 88 77
-0.587152 -1.29904 0.436193 -0.787856 -0.439533 -0.431385 15 80 84
-0.47544 -1.35837 0.414835 -0.133326 -0.937294 0.32203 14 73 86
-0.384077 -1.37494 0.417051 -0.166357 -0.919353 0.356534 14 68 87
-0.323195 -1.39532 0.390478 -0.236152 -0.971696 -0.00629881 14 65 87
-0.302091 -1.40548 0.390584 -0.46042 -0.880521 -0.112679 14 64 87
-1.38844 0.372781 0.375966 -0.891195 0.0181201 0.453258 14 75 80
-1.41373 0.18914 0.421516 -0.89759 -0.405928 0.171913 12 64 81
-1.43657 0.0423869 0.427 -0.984095 0.0295509 0.175166 12 57 82
-1.34976 -0.374817 0.474644 -0.33813 -0.940359 0.0373373 12 70 83
-1.18829 -0.752851 0.478758 -0.819817 -0.348492 0.454371 17 84 78
-1.10939 -0.88011 0.493287 -0.0243801 -0.694286 0.719286 18 87 76
-1.05327 -0.962948 0.492996 -0.681505 -0.048425 0.73021 18 87 76
-0.89525 -1.10604 0.455645 -0.804043 -0.372557 0.463375 19 90 76
-0.741761 -1.21397 0.455805 -0.0771779 -0.99285 0.0910609 19 86 79
-0.642885 -1.25853 0.41796 -0.324609 -0.943702 0.0636913 17 83 82
-0.658853 -1.26615 0.438085 -0.376315 -0.902833 0.208037 17 83 82
-0.615688 -1.27194 0.415855 -0.529356 -0.836723 -0.140273 16 82 83
-0.511044 -1.34069 0.399204 -0.972889 -0.177096 0.148741 14 76 86
-0.426024 -1.36814 0.391661 -0.51991 -0.853003 0.0456038 14 71 87
-1.39091 -0.163619 0.44139 -0.796254 0.0758623 0.600187 13 65 82
-1.37032 -0.399203 0.467066 -0.386981 -0.921705 -0.0265639 12 68 83
-1.35624 -0.428349 0.466424 -0.396661 -0.917348 -0.033648 12 68 83
-0.907845 -1.07838 0.433951 -0.869325 -0.303736 -0.389895 19 90 75
-0.846431 -1.14192 0.445562 -0.81332 -0.581746 0.00909206 19 89 77
-0.72055 -1.2437 0.430624 -0.629568 -0.404432 0.663385 17 86 80
-0.546671 -1.32533 0.390564 -0.139283 -0.971137 0.193634 14 78 87
-0.428773 -1.38668 0.379727 -0.547105 -0.837036 -0.00674635 14 70 86
-1.43676 0.0300717 0.40096 -0.755934 -0.610015 0.237584 12 57 82
-1.43777 -0.0632667 0.402146 -0.488001 -0.834756 0.255025 12 56 81
-1.3796 -0.374293 0.441588 -0.377052 -0.926061 -0.0155969 13 65 84
-1.30126 -0.563432 0.449926 -0.823484 -0.290272 0.487458 13 76 83
-1.24564 -0.769957 0.463426 -0.383049 -0.807287 0.448955 17 84 77
-1.12731 -0.870052 0.43199 -0.849764 0.0379198 0.525798 19 88 75
-0.834534 -1.14964 0.422809 -0.176056 -0.975732 0.130197 19 90 77
-0.80992 -1.16915 0.409061 -0.868736 -0.216298 0.445547 19 89 78
-0.615421 -1.30622 0.386169 -0.753886 -0.633899 0.172707 16 81 84
-0.358338 -1.41394 0.327898 -0.472932 -0.666295 0.576529 14 69 86
-1.47419 0.0351159 0.377642 -0.938268 -0.255225 0.233483 12 59 82
-1.46537 0.01583 0.375013 -0.925001 -0.0463279 0.377129 12 58 82
-1.37143 -0.469203 0.413936 -0.530609 -0.095224 0.842251 12 70 82
-1.29597 -0.61309 0.429118 -0.984457 -0.162075 0.0676496 15 79 81
-1.28802 -0.699042 0.432889 -0.94052 0.225864 0.253787 16 82 78
-1.20297 -0.747513 0.425819 -0.733847 -0.634128 0.243619 18 85 76
-1.18652 -0.764657 0.426128 -0.719454 -0.660705 0.214137 18 85 76
-1.11761 -0.906024 0.42402 0.0164366 -0.713578 0.700382 20 88 75
-1.12258 -0.887818 0.428098 0.0172224 -0.709821 0.704172 20 88 75
-0.837618 -1.16814 0.396274 -0.582327 -0.809838 0.0711266 19 90 76
-0.818274 -1.1836 0.392115 -0.78378 -0.324728 0.529377 19 89 78
-0.329694 -1.44423 0.320477 -0.588631 -0.467202 0.659724 14 72 86
-1.41292 -0.369668 0.38796 -0.658731 -0.707976 -0.254643 13 64 83
-1.37381 -0.456276 0.392338 -0.885874 -0.393256 0.246126 13 69 82
-1.30349 -0.600745 0.406645 -0.678002 -0.714731 -0.171674 14 77 82
-1.29167 -0.631524 0.411494 -0.585381 -0.809253 0.0493747 15 79 80
-1.12494 -0.907118 0.410488 0.0362229 -0.821004 0.569772 19 89 75
-0.831874 -1.1538 0.36929 -0.931113 -0.3261 0.163366 19 90 76
-0.827325 -1.17633 0.374155 -0.739926 -0.648992 -0.176974 19 89 78
-0.821755 -1.17639 0.368716 -0.927185 0.021146 0.374008 19 89 78
-0.787089 -1.20785 0.361405 -0.0390862 -0.798383 0.60088 18 88 78
-0.584986 -1.32224 0.336047 -0.765797 -0.60309 0.223243 14 79 86
-0.563481 -1.3377 0.337802 -0.390115 -0.919945 0.0388767 14 78 87
-0.354108 -1.43898 0.301898 -0.564628 -0.371183 0.737169 14 74 86
-1.43273 -0.079077 0.338706 -0.976997 0.14783 0.153701 12 56 83
-1.43273 -0.079077 0.338706 -0.976997 0.14783 0.153701 12 56 83
-1.42022 -0.371028 0.373319 -0.651857 -0.71028 0.265679 13 64 83
-1.39386 -0.395873 0.382473 -0.487314 -0.855091 -0.177042 13 66 82
-1.38413 -0.417631 0.364682 -0.379707 -0.813179 0.441093 13 68 83
-1.34427 -0.539599 0.38457 -0.705817 -0.548179 -0.44869 14 74 84
-1.3547 -0.53616 0.391199 -0.897507 -0.332835 0.289314 13 73 83
-1.33288 -0.559493 0.384835 -0.774081 -0.487341 0.4041 13 75 83
-1.32582 -0.582824 0.377824 -0.775095 -0.480303 0.410532 13 75 82
-1.31361 -0.658992 0.390427 -0.465192 -0.882074 -0.0744426 15 79 80
-0.836816 -1.16949 0.349777 -0.483443 -0.839867 0.246794 19 89 78
-0.813511 -1.18212 0.351716 -0.253103 -0.895102 0.367058 19 89 78
-0.7993 -1.1954 0.344257 -0.72859 -0.0934615 0.678544 18 88 78
-0.679156 -1.29288 0.322484 -0.836694 -0.440805 0.325015 15 81 82
-0.384442 -1.40401 0.277378 -0.288766 -0.713889 0.637947 14 74 86
-0.404509 -1.4019 0.276469 -0.461205 -0.822943 0.331746 14 74 87
-0.346353 -1.44606 0.277142 -0.319529 -0.937309 0.139114 14 77 87
-1.42907 -0.0935882 0.316122 -0.983302 0.0807493 0.163083 13 59 82
-1.34391 -0.552909 0.366074 -0.833965 0.216433 0.507601 14 74 84
-1.32939 -0.602863 0.361542 -0.540092 -0.827022 -0.155999 13 77 83
-1.30798 -0.654179 0.359945 -0.366416 -0.92683 0.0820026 15 79 81
-1.22215 -0.764298 0.356671 -0.410594 -0.836459 0.362974 17 84 76
-0.725159 -1.25474 0.300384 -0.564824 -0.820845 0.084781 16 85 82
-0.708146 -1.26085 0.316986 -0.425357 -0.876319 0.226133 17 84 82
-0.691291 -1.28585 0.305679 -0.631482 -0.160706 0.758554 16 81 82
