ply
format ascii 1.0
element vertex 1624
property float32 x
property float32 y
property float32 z
property uchar red
property uchar green
property uchar blue
end_header
-0.126	-0.877	1.2	64	234	255
-0.126	-0.883	1.2	63	233	255
-0.126	-0.894	1.16	64	233	255
-0.126	-0.901	1.16	64	233	255
-0.126	-0.907	1.16	62	231	252
-0.126	-0.913	1.16	62	231	252
-0.126	-0.919	1.16	61	230	251
-0.126	-0.925	1.16	61	230	251
-0.126	-0.931	1.16	62	228	250
-0.126	-0.937	1.16	61	227	249
-0.127	-0.949	1.11	61	226	248
-0.127	-0.955	1.11	61	226	248
-0.127	-0.961	1.11	62	224	247
-0.127	-0.967	1.11	61	223	246
-0.127	-0.974	1.11	60	222	245
-0.127	-0.98	1.11	59	221	244
-0.127	-0.986	1.11	59	219	243
-0.128	-0.998	1.07	58	218	242
-0.128	-1	1.07	57	217	243
-0.128	-1.01	1.07	56	216	242
-0.128	-1.02	1.07	56	214	239
-0.128	-1.02	1.07	58	213	241
-0.128	-1.03	1.07	56	211	241
-0.129	-1.04	1.02	54	209	239
-0.129	-1.05	1.02	54	207	239
-0.129	-1.05	1.02	53	206	238
-0.129	-1.06	1.02	54	204	237
-0.129	-1.07	1.02	52	202	237
-0.129	-1.07	1.02	52	200	236
-0.124	1.14	0.95	55	202	218
-0.123	1.11	0.995	53	203	228
-0.123	1.1	0.995	53	203	230
-0.123	1.1	0.995	53	202	232
-0.123	1.09	0.995	53	202	234
-0.123	1.09	0.995	53	203	236
-0.122	1.07	1.04	53	203	236
-0.122	1.07	1.04	55	205	238
-0.122	1.06	1.04	55	205	238
-0.122	1.05	1.04	54	207	241
-0.122	1.05	1.04	54	207	241
-0.122	1.04	1.04	55	210	241
-0.122	1.03	1.08	56	211	242
-0.122	1.02	1.08	55	212	243
-0.122	1.02	1.08	57	214	245
-0.122	1.01	1.08	56	215	245
-0.122	1	1.08	57	216	246
-0.122	0.999	1.08	58	217	247
-0.121	0.986	1.13	59	218	248
-0.121	0.98	1.13	58	219	248
-0.121	0.974	1.13	59	220	249
-0.121	0.968	1.13	59	219	251
-0.121	0.962	1.13	60	220	252
-0.121	0.956	1.13	60	223	254
-0.121	0.95	1.13	60	223	254
-0.121	0.943	1.13	59	224	255
-0.12	0.931	1.17	59	224	255
-0.12	0.925	1.17	59	224	254
-0.12	0.919	1.17	60	225	255
-0.12	0.913	1.17	60	225	255
-0.12	0.907	1.17	61	226	255
-0.12	0.901	1.17	60	228	255
-0.12	0.895	1.17	61	229	255
-0.12	0.889	1.17	63	231	255
-0.119	0.877	1.22	64	233	255
-0.119	0.871	1.22	65	236	255
-0.119	0.865	1.22	65	236	255
-0.119	0.859	1.22	66	237	255
-0.119	0.853	1.22	67	240	255
-0.119	0.847	1.22	65	241	255
-0.119	0.841	1.22	66	242	255
-0.119	0.835	1.22	67	243	255
-0.119	0.829	1.22	68	245	255
-0.119	0.818	1.26	69	246	254
-0.119	0.812	1.26	70	247	255
-0.119	0.806	1.26	69	248	255
-0.119	0.8	1.26	70	249	255
-0.119	0.794	1.26	69	251	255
-0.119	0.788	1.26	70	252	255
-0.119	0.782	1.26	71	253	255
-0.119	0.776	1.26	71	253	255
-0.119	0.77	1.26	71	255	255
-0.119	0.764	1.26	71	255	255
-0.118	0.753	1.3	72	254	255
-0.118	0.747	1.3	73	255	255
-0.118	0.741	1.3	73	255	255
-0.118	0.736	1.3	73	255	255
-0.118	0.73	1.3	73	255	255
-0.118	0.724	1.3	73	255	255
-0.118	0.718	1.3	73	255	255
-0.118	0.712	1.3	73	255	255
-0.118	0.706	1.3	75	255	254
-0.118	0.7	1.3	75	255	254
-0.118	0.694	1.3	75	255	254
-0.118	0.688	1.3	75	255	254
-0.118	0.682	1.3	75	255	254
-0.117	0.672	1.34	75	255	254
-0.117	0.666	1.34	76	254	254
-0.117	0.66	1.34	77	255	255
-0.117	0.654	1.34	77	255	255
-0.117	0.648	1.34	77	255	255
-0.117	0.642	1.34	77	255	255
-0.117	0.636	1.34	77	255	255
-0.117	0.63	1.34	77	255	255
-0.117	0.625	1.34	77	255	255
-0.117	0.619	1.34	77	255	255
-0.117	0.613	1.34	77	255	255
-0.117	0.607	1.34	77	255	255
-0.117	0.601	1.34	77	255	255
-0.117	0.595	1.34	77	255	255
-0.116	0.585	1.39	77	255	255
-0.116	0.58	1.39	79	255	255
-0.116	0.574	1.39	79	255	255
-0.116	0.568	1.39	79	255	255
-0.116	0.562	1.39	79	255	255
-0.116	0.556	1.39	79	255	255
-0.116	0.55	1.39	79	255	255
-0.116	0.544	1.39	79	255	255
-0.116	0.538	1.39	79	255	255
-0.116	0.533	1.39	79	255	255
-0.116	0.527	1.39	79	255	255
-0.116	0.521	1.39	79	255	255
-0.116	0.515	1.39	79	255	255
-0.116	0.509	1.39	79	255	255
-0.116	0.503	1.39	79	255	255
-0.116	0.497	1.39	79	255	255
-0.116	0.491	1.39	79	255	255
-0.116	0.483	1.43	79	255	255
-0.116	0.477	1.43	79	255	255
-0.116	0.471	1.43	79	255	255
-0.116	0.465	1.43	79	255	255
-0.116	0.459	1.43	79	255	255
-0.116	0.453	1.43	79	255	255
-0.116	0.448	1.43	79	255	255
-0.116	0.442	1.43	79	255	255
-0.116	0.436	1.43	79	255	255
-0.116	0.43	1.43	79	255	255
-0.116	0.424	1.43	79	255	255
-0.116	0.418	1.43	79	255	255
-0.116	0.413	1.43	79	255	255
-0.116	0.407	1.43	79	255	255
-0.116	0.401	1.43	79	255	255
-0.116	0.395	1.43	79	255	255
-0.116	0.389	1.43	79	255	255
-0.116	0.383	1.43	79	255	255
-0.116	0.378	1.43	79	255	255
-0.116	0.372	1.43	79	255	255
-0.116	0.366	1.43	77	255	255
-0.116	0.36	1.43	77	255	255
-0.116	0.354	1.43	77	255	255
-0.115	0.346	1.47	77	255	255
-0.115	0.34	1.47	77	255	255
-0.115	0.335	1.47	77	255	255
-0.115	0.329	1.47	77	255	255
-0.115	0.323	1.47	77	255	255
-0.115	0.317	1.47	77	255	255
-0.115	0.311	1.47	77	255	255
-0.115	0.306	1.47	77	255	255
-0.115	0.3	1.47	77	255	255
-0.115	0.294	1.47	77	255	255
-0.115	0.288	1.47	77	255	255
-0.115	0.282	1.47	75	255	254
-0.115	0.277	1.47	75	255	254
-0.115	0.271	1.47	75	255	254
-0.115	0.265	1.47	75	255	254
-0.115	0.259	1.47	75	255	254
-0.115	0.253	1.47	75	255	254
-0.115	0.248	1.47	75	255	254
-0.115	0.242	1.47	75	255	254
-0.115	0.236	1.47	75	255	254
-0.115	0.23	1.47	75	255	254
-0.115	0.224	1.47	75	255	254
-0.115	0.219	1.47	75	255	254
-0.115	0.213	1.47	73	255	255
-0.115	0.207	1.47	73	255	255
-0.115	0.201	1.47	73	255	255
-0.115	0.196	1.47	73	255	255
-0.115	0.19	1.47	73	255	255
-0.115	0.184	1.47	73	255	255
-0.115	0.178	1.47	73	255	255
-0.115	0.172	1.47	73	255	255
-0.115	0.167	1.47	72	255	255
-0.115	0.161	1.47	71	255	255
-0.115	0.155	1.47	71	255	255
-0.115	0.149	1.47	71	255	255
-0.115	0.143	1.47	71	255	255
-0.115	0.138	1.47	71	255	255
-0.115	0.132	1.47	71	255	255
-0.115	0.126	1.47	71	255	255
-0.115	0.12	1.47	71	255	255
-0.115	0.114	1.47	71	255	255
-0.115	0.109	1.47	70	255	255
-0.115	0.103	1.47	70	255	255
-0.115	0.0969	1.47	70	255	255
-0.115	0.0911	1.47	70	255	255
-0.115	0.0853	1.47	69	255	254
-0.115	0.0796	1.47	69	255	254
-0.115	0.0738	1.47	69	254	255
-0.115	0.068	1.47	69	254	255
-0.115	0.0622	1.47	67	255	255
-0.115	0.0564	1.47	67	255	255
-0.115	0.0506	1.47	66	254	255
-0.115	0.0448	1.47	66	254	255
-0.114	0.0387	1.51	68	253	255
-0.114	0.033	1.51	67	252	255
-0.115	0.0274	1.47	68	251	255
-0.115	0.0216	1.47	67	250	254
-0.115	0.0158	1.47	67	250	254
-0.114	0.00992	1.51	67	250	254
-0.114	0.00415	1.51	67	248	255
-0.115	-0.00162	1.47	67	248	255
-0.114	-0.00737	1.51	66	247	254
-0.114	-0.0131	1.51	66	247	254
-0.115	-0.019	1.47	66	247	255
-0.115	-0.0248	1.47	65	246	255
-0.115	-0.0306	1.47	66	244	254
-0.115	-0.0364	1.47	67	245	255
-0.115	-0.0422	1.47	67	243	255
-0.115	-0.048	1.47	66	242	255
-0.115	-0.0538	1.47	66	242	255
-0.115	-0.0596	1.47	66	242	255
-0.115	-0.0654	1.47	65	241	255
-0.115	-0.0712	1.47	65	241	255
-0.115	-0.077	1.47	67	240	255
-0.115	-0.0828	1.47	66	239	255
-0.115	-0.0886	1.47	67	238	255
-0.115	-0.0944	1.47	67	238	255
-0.115	-0.1	1.47	66	237	255
-0.115	-0.106	1.47	65	236	254
-0.115	-0.112	1.47	66	235	255
-0.115	-0.118	1.47	66	235	255
-0.115	-0.123	1.47	66	235	255
-0.115	-0.129	1.47	66	235	255
-0.115	-0.135	1.47	66	235	255
-0.115	-0.141	1.47	65	234	255
-0.115	-0.147	1.47	65	234	255
-0.115	-0.152	1.47	65	234	255
-0.115	-0.158	1.47	65	234	255
-0.115	-0.164	1.47	65	234	255
-0.115	-0.17	1.47	65	234	255
-0.115	-0.176	1.47	65	234	255
-0.115	-0.181	1.47	65	234	255
-0.115	-0.187	1.47	65	234	255
-0.115	-0.193	1.47	65	234	255
-0.115	-0.199	1.47	65	234	255
-0.115	-0.205	1.47	65	234	255
-0.115	-0.21	1.47	65	234	255
-0.115	-0.216	1.47	66	235	255
-0.115	-0.222	1.47	66	235	255
-0.115	-0.228	1.47	65	236	254
-0.115	-0.234	1.47	65	236	254
-0.115	-0.239	1.47	66	237	255
-0.115	-0.245	1.47	66	237	255
-0.115	-0.251	1.47	65	238	255
-0.115	-0.257	1.47	65	238	255
-0.115	-0.263	1.47	66	239	255
-0.115	-0.268	1.47	66	239	255
-0.115	-0.274	1.47	64	240	253
-0.115	-0.28	1.47	65	241	254
-0.115	-0.286	1.47	64	242	254
-0.115	-0.292	1.47	65	243	255
-0.115	-0.297	1.47	65	243	255
-0.115	-0.303	1.47	65	243	255
-0.115	-0.309	1.47	66	244	255
-0.115	-0.315	1.47	66	244	255
-0.115	-0.321	1.47	64	245	254
-0.115	-0.326	1.47	64	245	254
-0.115	-0.332	1.47	65	246	255
-0.116	-0.34	1.43	65	246	255
-0.116	-0.346	1.43	64	247	255
-0.116	-0.352	1.43	64	247	255
-0.116	-0.358	1.43	64	249	254
-0.116	-0.363	1.43	65	250	255
-0.116	-0.369	1.43	66	249	255
-0.116	-0.375	1.43	66	249	255
-0.116	-0.381	1.43	67	250	254
-0.116	-0.387	1.43	67	250	254
-0.116	-0.393	1.43	67	250	254
-0.116	-0.398	1.43	67	250	254
-0.116	-0.404	1.43	67	250	254
-0.116	-0.41	1.43	68	251	255
-0.116	-0.416	1.43	68	251	255
-0.116	-0.422	1.43	68	251	255
-0.116	-0.428	1.43	68	253	255
-0.116	-0.433	1.43	68	253	255
-0.116	-0.439	1.43	68	253	255
-0.116	-0.445	1.43	69	254	255
-0.116	-0.451	1.43	69	255	254
-0.116	-0.457	1.43	69	255	254
-0.116	-0.463	1.43	69	255	254
-0.116	-0.468	1.43	69	255	254
-0.116	-0.477	1.38	70	255	255
-0.116	-0.483	1.38	70	255	255
-0.116	-0.489	1.38	70	255	255
-0.116	-0.495	1.38	70	255	255
-0.116	-0.501	1.38	70	255	255
-0.116	-0.507	1.38	70	255	255
-0.116	-0.512	1.38	71	255	255
-0.116	-0.518	1.38	71	255	255
-0.116	-0.524	1.38	71	255	255
-0.116	-0.53	1.38	71	255	255
-0.116	-0.536	1.38	71	255	255
-0.116	-0.542	1.38	71	255	255
-0.116	-0.548	1.38	71	255	255
-0.116	-0.554	1.38	71	255	255
-0.116	-0.559	1.38	71	255	255
-0.116	-0.565	1.38	71	255	255
-0.116	-0.571	1.38	71	255	255
-0.116	-0.577	1.38	71	255	255
-0.117	-0.587	1.34	71	255	255
-0.117	-0.593	1.34	71	255	255
-0.117	-0.598	1.34	71	255	255
-0.117	-0.604	1.34	71	255	255
-0.117	-0.61	1.34	71	255	255
-0.117	-0.616	1.34	71	255	255
-0.117	-0.622	1.34	71	255	255
-0.117	-0.628	1.34	71	255	255
-0.117	-0.634	1.34	71	255	255
-0.117	-0.64	1.34	71	255	255
-0.117	-0.646	1.34	71	255	255
-0.117	-0.652	1.34	71	255	255
-0.117	-0.658	1.34	71	255	255
-0.118	-0.668	1.3	71	255	255
-0.118	-0.674	1.3	71	255	255
-0.118	-0.68	1.3	71	255	255
-0.118	-0.685	1.3	71	255	255
-0.118	-0.691	1.3	71	255	255
-0.118	-0.697	1.3	71	255	255
-0.118	-0.703	1.3	70	254	254
-0.118	-0.709	1.3	70	254	255
-0.118	-0.715	1.3	70	254	255
-0.118	-0.721	1.3	70	252	255
-0.118	-0.727	1.3	70	252	255
-0.118	-0.733	1.3	70	252	255
-0.118	-0.739	1.3	70	252	255
-0.119	-0.75	1.26	69	251	255
-0.119	-0.756	1.26	68	250	254
-0.119	-0.762	1.26	68	250	254
-0.119	-0.768	1.26	67	249	253
-0.119	-0.774	1.26	69	248	255
-0.119	-0.78	1.26	69	248	255
-0.119	-0.786	1.26	68	246	255
-0.119	-0.792	1.26	68	246	255
-0.119	-0.798	1.26	68	245	255
-0.119	-0.804	1.26	67	244	254
-0.119	-0.815	1.21	67	243	255
-0.119	-0.821	1.21	66	242	255
-0.119	-0.827	1.21	65	241	255
-0.119	-0.833	1.21	65	241	255
-0.119	-0.839	1.21	66	239	255
-0.119	-0.845	1.21	65	238	255
-0.119	-0.851	1.21	65	238	255
-0.119	-0.857	1.21	64	237	254
-0.119	-0.863	1.21	64	235	255
-0.12	-0.874	1.17	64	235	255
-0.12	-0.881	1.17	64	235	255
-0.12	-0.887	1.17	63	234	254
-0.12	-0.893	1.17	63	232	255
-0.12	-0.899	1.17	63	232	255
-0.12	-0.905	1.17	62	231	252
-0.12	-0.911	1.17	61	230	251
-0.12	-0.917	1.17	63	229	251
-0.12	-0.923	1.17	62	228	250
-0.121	-0.935	1.13	62	228	250
-0.121	-0.941	1.13	62	228	250
-0.121	-0.947	1.13	62	227	249
-0.121	-0.953	1.13	61	226	248
-0.121	-0.959	1.13	62	224	247
-0.121	-0.965	1.13	61	223	246
-0.121	-0.972	1.13	60	222	245
-0.122	-0.984	1.08	59	221	244
-0.122	-0.99	1.08	60	220	244
-0.122	-0.996	1.08	59	219	243
-0.122	-1	1.08	58	218	242
-0.122	-1.01	1.08	57	217	241
-0.122	-1.01	1.08	56	214	241
-0.122	-1.02	1.08	55	213	240
-0.122	-1.03	1.04	56	211	241
-0.122	-1.04	1.04	55	210	240
-0.122	-1.05	1.04	54	207	238
-0.122	-1.05	1.04	53	206	238
-0.122	-1.06	1.04	54	204	237
-0.123	-1.07	0.993	53	203	236
-0.123	-1.08	0.993	52	200	236
-0.118	1.15	0.918	54	202	214
-0.117	1.14	0.964	55	202	218
-0.117	1.13	0.964	54	203	223
-0.117	1.12	0.964	52	202	227
-0.117	1.1	1.01	53	202	232
-0.117	1.09	1.01	53	202	234
-0.117	1.08	1.01	53	204	235
-0.117	1.08	1.01	54	204	237
-0.116	1.06	1.05	55	205	238
-0.116	1.06	1.05	55	205	238
-0.116	1.05	1.05	54	207	241
-0.116	1.05	1.05	55	208	242
-0.116	1.04	1.05	54	209	240
-0.116	1.03	1.05	56	211	242
-0.115	1.02	1.1	56	213	244
-0.115	1.02	1.1	57	214	245
-0.115	1.01	1.1	56	215	245
-0.115	1	1.1	57	216	246
-0.115	0.997	1.1	58	217	247
-0.115	0.991	1.1	59	218	248
-0.115	0.984	1.1	58	219	248
-0.114	0.972	1.14	59	220	249
-0.114	0.966	1.14	60	220	252
-0.114	0.96	1.14	60	220	252
-0.114	0.954	1.14	59	222	253
-0.114	0.948	1.14	59	222	253
-0.114	0.942	1.14	58	223	255
-0.114	0.936	1.14	59	224	255
-0.114	0.929	1.14	59	224	254
-0.114	0.917	1.19	60	225	255
-0.114	0.911	1.19	61	224	255
-0.114	0.905	1.19	61	226	255
-0.114	0.899	1.19	60	228	255
-0.114	0.893	1.19	62	230	255
-0.114	0.887	1.19	63	231	255
-0.114	0.881	1.19	64	233	255
-0.114	0.875	1.19	64	235	255
-0.113	0.864	1.23	65	236	255
-0.113	0.858	1.23	66	237	255
-0.113	0.852	1.23	66	239	255
-0.113	0.846	1.23	65	241	255
-0.113	0.84	1.23	66	242	255
-0.113	0.834	1.23	67	243	255
-0.113	0.828	1.23	68	245	255
-0.113	0.821	1.23	69	246	254
-0.113	0.815	1.23	68	247	254
-0.113	0.809	1.23	69	248	255
-0.112	0.798	1.27	70	249	255
-0.112	0.792	1.27	69	251	255
-0.112	0.786	1.27	70	252	255
-0.112	0.78	1.27	71	253	255
-0.112	0.775	1.27	71	253	255
-0.112	0.769	1.27	71	255	255
-0.112	0.763	1.27	71	255	255
-0.112	0.757	1.27	72	254	255
-0.112	0.751	1.27	73	255	255
-0.112	0.745	1.27	73	255	255
-0.112	0.739	1.27	73	255	255
-0.112	0.728	1.31	73	255	255
-0.112	0.722	1.31	73	255	255
-0.112	0.716	1.31	73	255	255
-0.112	0.71	1.31	73	255	255
-0.112	0.704	1.31	75	255	254
-0.112	0.698	1.31	75	255	254
-0.112	0.692	1.31	75	255	254
-0.112	0.687	1.31	75	255	254
-0.112	0.681	1.31	75	255	254
-0.112	0.675	1.31	75	255	254
-0.112	0.669	1.31	76	254	254
-0.112	0.663	1.31	77	255	255
-0.112	0.657	1.31	77	255	255
-0.111	0.647	1.36	77	255	255
-0.111	0.641	1.36	77	255	255
-0.111	0.635	1.36	77	255	255
-0.111	0.629	1.36	77	255	255
-0.111	0.623	1.36	77	255	255
-0.111	0.617	1.36	77	255	255
-0.111	0.611	1.36	77	255	255
-0.111	0.606	1.36	77	255	255
-0.111	0.6	1.36	77	255	255
-0.111	0.594	1.36	77	255	255
-0.111	0.588	1.36	77	255	255
-0.111	0.582	1.36	79	255	255
-0.111	0.576	1.36	79	255	255
-0.111	0.57	1.36	79	255	255
-0.111	0.564	1.36	79	255	255
-0.11	0.555	1.4	79	255	255
-0.11	0.549	1.4	79	255	255
-0.11	0.543	1.4	79	255	255
-0.11	0.537	1.4	79	255	255
-0.11	0.532	1.4	79	255	255
-0.11	0.526	1.4	79	255	255
-0.11	0.52	1.4	79	255	255
-0.11	0.514	1.4	79	255	255
-0.11	0.508	1.4	79	255	255
-0.11	0.502	1.4	79	255	255
-0.11	0.496	1.4	79	255	255
-0.11	0.49	1.4	79	255	255
-0.11	0.485	1.4	79	255	255
-0.11	0.479	1.4	79	255	255
-0.11	0.473	1.4	79	255	255
-0.11	0.467	1.4	79	255	255
-0.11	0.461	1.4	79	255	255
-0.11	0.455	1.4	79	255	255
-0.11	0.449	1.4	79	255	255
-0.11	0.441	1.44	79	255	255
-0.11	0.435	1.44	79	255	255
-0.11	0.429	1.44	79	255	255
-0.11	0.423	1.44	79	255	255
-0.11	0.418	1.44	79	255	255
-0.11	0.412	1.44	79	255	255
-0.11	0.406	1.44	79	255	255
-0.11	0.4	1.44	79	255	255
-0.11	0.394	1.44	79	255	255
-0.11	0.388	1.44	79	255	255
-0.11	0.383	1.44	79	255	255
-0.11	0.377	1.44	79	255	255
-0.11	0.371	1.44	79	255	255
-0.11	0.365	1.44	77	255	255
-0.11	0.359	1.44	77	255	255
-0.11	0.354	1.44	77	255	255
-0.11	0.348	1.44	77	255	255
-0.11	0.342	1.44	77	255	255
-0.11	0.336	1.44	77	255	255
-0.11	0.33	1.44	77	255	255
-0.11	0.324	1.44	77	255	255
-0.11	0.319	1.44	77	255	255
-0.11	0.313	1.44	77	255	255
-0.11	0.307	1.44	77	255	255
-0.11	0.301	1.44	77	255	255
-0.11	0.295	1.44	77	255	255
-0.109	0.288	1.48	76	254	254
-0.109	0.282	1.48	75	255	254
-0.109	0.276	1.48	75	255	254
-0.109	0.27	1.48	75	255	254
-0.109	0.265	1.48	75	255	254
-0.109	0.259	1.48	75	255	254
-0.109	0.253	1.48	75	255	254
-0.109	0.247	1.48	75	255	254
-0.109	0.241	1.48	75	255	254
-0.109	0.236	1.48	75	255	254
-0.109	0.23	1.48	75	255	254
-0.109	0.224	1.48	75	255	254
-0.109	0.218	1.48	75	255	254
-0.109	0.212	1.48	73	255	255
-0.109	0.207	1.48	73	255	255
-0.109	0.201	1.48	73	255	255
-0.109	0.195	1.48	73	255	255
-0.109	0.189	1.48	73	255	255
-0.109	0.184	1.48	73	255	255
-0.109	0.178	1.48	73	255	255
-0.109	0.172	1.48	73	255	255
-0.109	0.166	1.48	71	255	255
-0.109	0.16	1.48	71	255	255
-0.109	0.155	1.48	71	255	255
-0.109	0.149	1.48	71	255	255
-0.109	0.143	1.48	71	255	255
-0.109	0.137	1.48	71	255	255
-0.109	0.131	1.48	71	255	255
-0.109	0.126	1.48	71	255	255
-0.109	0.12	1.48	71	255	255
-0.109	0.114	1.48	71	255	255
-0.109	0.108	1.48	70	255	255
-0.109	0.103	1.48	70	255	255
-0.109	0.0967	1.48	70	255	255
-0.109	0.091	1.48	69	255	254
-0.109	0.0852	1.48	69	255	254
-0.109	0.0794	1.48	69	255	254
-0.109	0.0736	1.48	69	254	255
-0.109	0.0678	1.48	69	254	255
-0.109	0.062	1.48	67	255	255
-0.109	0.0562	1.48	67	255	255
-0.109	0.0505	1.48	66	254	255
-0.109	0.0447	1.48	66	254	255
-0.109	0.0389	1.48	68	253	255
-0.109	0.0331	1.48	67	252	255
-0.109	0.0273	1.48	67	250	254
-0.109	0.0215	1.48	67	250	254
-0.109	0.0157	1.48	67	250	254
-0.109	0.00996	1.48	66	249	253
-0.109	0.00417	1.48	67	248	255
-0.109	-0.00162	1.48	66	247	254
-0.109	-0.0074	1.48	66	247	254
-0.109	-0.0132	1.48	66	247	254
-0.109	-0.019	1.48	66	247	255
-0.109	-0.0248	1.48	65	246	255
-0.109	-0.0305	1.48	67	245	255
-0.109	-0.0363	1.48	66	244	254
-0.109	-0.0421	1.48	67	243	255
-0.109	-0.0479	1.48	66	242	255
-0.109	-0.0537	1.48	66	242	255
-0.109	-0.0595	1.48	66	242	255
-0.109	-0.0653	1.48	65	241	255
-0.109	-0.071	1.48	65	241	255
-0.109	-0.0768	1.48	66	239	255
-0.109	-0.0826	1.48	66	239	255
-0.109	-0.0884	1.48	66	237	255
-0.109	-0.0942	1.48	66	237	255
-0.109	-0.1	1.48	65	236	254
-0.109	-0.106	1.48	65	236	254
-0.109	-0.112	1.48	66	235	255
-0.109	-0.117	1.48	66	235	255
-0.109	-0.123	1.48	66	235	255
-0.109	-0.129	1.48	66	235	255
-0.109	-0.135	1.48	65	234	255
-0.109	-0.14	1.48	65	234	255
-0.109	-0.146	1.48	65	234	255
-0.109	-0.152	1.48	65	234	255
-0.109	-0.158	1.48	65	234	255
-0.109	-0.164	1.48	65	234	255
-0.109	-0.169	1.48	65	234	255
-0.109	-0.175	1.48	65	234	255
-0.109	-0.181	1.48	65	234	255
-0.109	-0.187	1.48	65	234	255
-0.109	-0.193	1.48	65	234	255
-0.109	-0.198	1.48	65	234	255
-0.109	-0.204	1.48	65	234	255
-0.109	-0.21	1.48	65	234	255
-0.109	-0.216	1.48	66	235	255
-0.109	-0.221	1.48	66	235	255
-0.109	-0.227	1.48	65	236	254
-0.109	-0.233	1.48	65	236	254
-0.109	-0.239	1.48	66	237	255
-0.109	-0.245	1.48	65	238	255
-0.109	-0.25	1.48	65	238	255
-0.109	-0.256	1.48	66	239	255
-0.109	-0.262	1.48	66	239	255
-0.109	-0.268	1.48	66	239	255
-0.109	-0.274	1.48	65	241	254
-0.11	-0.281	1.44	65	241	254
-0.11	-0.287	1.44	65	243	255
-0.11	-0.293	1.44	65	243	255
-0.11	-0.299	1.44	65	243	255
-0.11	-0.304	1.44	66	244	255
-0.11	-0.31	1.44	66	244	255
-0.11	-0.316	1.44	66	244	255
-0.11	-0.322	1.44	64	245	254
-0.11	-0.328	1.44	65	246	255
-0.11	-0.334	1.44	65	246	255
-0.11	-0.339	1.44	65	246	255
-0.11	-0.345	1.44	64	247	255
-0.11	-0.351	1.44	64	247	255
-0.11	-0.357	1.44	64	249	254
-0.11	-0.363	1.44	65	250	255
-0.11	-0.368	1.44	66	249	255
-0.11	-0.374	1.44	67	250	255
-0.11	-0.38	1.44	67	250	254
-0.11	-0.386	1.44	67	250	254
-0.11	-0.392	1.44	68	251	255
-0.11	-0.398	1.44	67	250	254
-0.11	-0.403	1.44	67	250	254
-0.11	-0.409	1.44	68	251	255
-0.11	-0.415	1.44	68	251	255
-0.11	-0.421	1.44	69	252	255
-0.11	-0.427	1.44	68	253	255
-0.11	-0.433	1.44	69	254	255
-0.11	-0.441	1.4	69	254	255
-0.11	-0.447	1.4	69	254	255
-0.11	-0.453	1.4	69	255	254
-0.11	-0.459	1.4	69	255	254
-0.11	-0.465	1.4	70	255	255
-0.11	-0.47	1.4	70	255	255
-0.11	-0.476	1.4	70	255	255
-0.11	-0.482	1.4	70	255	255
-0.11	-0.488	1.4	70	255	255
-0.11	-0.494	1.4	70	255	255
-0.11	-0.5	1.4	70	255	255
-0.11	-0.506	1.4	70	255	255
-0.11	-0.511	1.4	71	255	255
-0.11	-0.517	1.4	71	255	255
-0.11	-0.523	1.4	71	255	255
-0.11	-0.529	1.4	71	255	255
-0.11	-0.535	1.4	71	255	255
-0.11	-0.541	1.4	71	255	255
-0.111	-0.55	1.36	71	255	255
-0.111	-0.556	1.36	71	255	255
-0.111	-0.562	1.36	71	255	255
-0.111	-0.568	1.36	71	255	255
-0.111	-0.574	1.36	71	255	255
-0.111	-0.58	1.36	71	255	255
-0.111	-0.585	1.36	71	255	255
-0.111	-0.591	1.36	71	255	255
-0.111	-0.597	1.36	71	255	255
-0.111	-0.603	1.36	71	255	255
-0.111	-0.609	1.36	71	255	255
-0.111	-0.615	1.36	71	255	255
-0.111	-0.621	1.36	71	255	255
-0.111	-0.627	1.36	71	255	255
-0.111	-0.633	1.36	71	255	255
-0.112	-0.643	1.31	71	255	255
-0.112	-0.648	1.31	71	255	255
-0.112	-0.654	1.31	71	255	255
-0.112	-0.66	1.31	71	255	255
-0.112	-0.666	1.31	71	255	255
-0.112	-0.672	1.31	71	255	255
-0.112	-0.678	1.31	71	255	255
-0.112	-0.684	1.31	71	255	255
-0.112	-0.69	1.31	71	255	255
-0.112	-0.696	1.31	71	255	255
-0.112	-0.702	1.31	71	255	255
-0.112	-0.708	1.31	70	254	255
-0.112	-0.714	1.31	70	254	255
-0.112	-0.724	1.27	71	253	255
-0.112	-0.73	1.27	71	253	255
-0.112	-0.736	1.27	70	252	255
-0.112	-0.742	1.27	69	251	255
-0.112	-0.748	1.27	69	251	255
-0.112	-0.754	1.27	70	252	255
-0.112	-0.76	1.27	68	250	254
-0.112	-0.766	1.27	68	250	254
-0.112	-0.772	1.27	69	248	255
-0.112	-0.778	1.27	68	247	254
-0.112	-0.784	1.27	68	247	254
-0.113	-0.795	1.23	68	246	255
-0.113	-0.801	1.23	69	246	255
-0.113	-0.807	1.23	68	245	255
-0.113	-0.813	1.23	67	243	255
-0.113	-0.819	1.23	67	243	255
-0.113	-0.825	1.23	66	242	255
-0.113	-0.831	1.23	65	241	255
-0.113	-0.837	1.23	67	240	255
-0.113	-0.843	1.23	66	239	255
-0.113	-0.849	1.23	65	238	255
-0.114	-0.861	1.19	65	238	255
-0.114	-0.867	1.19	65	236	255
-0.114	-0.873	1.19	65	236	255
-0.114	-0.879	1.19	64	235	255
-0.114	-0.885	1.19	64	235	255
-0.114	-0.891	1.19	64	233	255
-0.114	-0.897	1.19	63	232	253
-0.114	-0.903	1.19	63	232	253
-0.114	-0.915	1.14	63	232	253
-0.114	-0.921	1.14	63	229	251
-0.114	-0.927	1.14	63	229	251
-0.114	-0.933	1.14	62	228	250
-0.114	-0.939	1.14	62	228	250
-0.114	-0.945	1.14	62	227	249
-0.114	-0.951	1.14	61	226	248
-0.114	-0.957	1.14	60	225	247
-0.115	-0.97	1.1	61	223	246
-0.115	-0.976	1.1	61	223	246
-0.115	-0.982	1.1	59	221	244
-0.115	-0.988	1.1	60	220	244
-0.115	-0.994	1.1	59	219	243
-0.115	-1	1.1	58	218	242
-0.115	-1.01	1.1	57	217	241
-0.116	-1.02	1.05	57	215	242
-0.116	-1.03	1.05	56	214	241
-0.116	-1.03	1.05	57	212	240
-0.116	-1.04	1.05	55	210	240
-0.116	-1.04	1.05	55	208	239
-0.116	-1.05	1.05	54	207	238
-0.117	-1.06	1.01	54	205	236
-0.117	-1.07	1.01	53	203	236
-0.117	-1.08	1.01	52	201	234
-0.111	1.12	0.978	53	202	226
-0.11	1.09	1.02	53	202	232
-0.11	1.09	1.02	53	202	234
-0.11	1.08	1.02	53	204	235
-0.11	1.08	1.02	54	205	236
-0.11	1.07	1.02	52	205	237
-0.11	1.06	1.02	53	206	238
-0.109	1.05	1.07	54	207	241
-0.109	1.04	1.07	55	208	242
-0.109	1.04	1.07	55	210	241
-0.109	1.03	1.07	56	211	242
-0.109	1.03	1.07	56	213	244
-0.109	1.02	1.07	57	214	245
-0.109	1.01	1.11	56	215	245
-0.109	1	1.11	56	215	245
-0.109	0.995	1.11	57	216	246
-0.109	0.989	1.11	59	218	248
-0.109	0.982	1.11	58	219	248
-0.109	0.976	1.11	59	220	249
-0.109	0.97	1.11	59	220	249
-0.108	0.958	1.16	60	221	250
-0.108	0.952	1.16	59	222	253
-0.108	0.946	1.16	59	222	253
-0.108	0.94	1.16	59	224	254
-0.108	0.934	1.16	59	224	254
-0.108	0.928	1.16	59	224	254
-0.108	0.921	1.16	60	225	255
-0.108	0.915	1.16	60	225	255
-0.107	0.904	1.2	61	226	255
-0.107	0.897	1.2	60	228	255
-0.107	0.891	1.2	61	229	255
-0.107	0.885	1.2	62	230	255
-0.107	0.879	1.2	63	232	255
-0.107	0.873	1.2	64	235	255
-0.107	0.867	1.2	64	235	255
-0.107	0.861	1.2	65	238	255
-0.107	0.855	1.2	65	238	255
-0.107	0.844	1.24	65	241	255
-0.107	0.838	1.24	65	241	255
-0.107	0.832	1.24	67	243	255
-0.107	0.826	1.24	67	244	254
-0.107	0.82	1.24	68	247	254
-0.107	0.814	1.24	68	247	254
-0.107	0.808	1.24	69	248	255
-0.107	0.802	1.24	68	249	255
-0.107	0.796	1.24	69	251	255
-0.107	0.79	1.24	69	251	255
-0.106	0.779	1.29	69	253	255
-0.106	0.773	1.29	70	254	255
-0.106	0.767	1.29	70	254	254
-0.106	0.761	1.29	71	255	255
-0.106	0.755	1.29	71	255	255
-0.106	0.749	1.29	72	255	255
-0.106	0.743	1.29	73	255	255
-0.106	0.737	1.29	73	255	255
-0.106	0.731	1.29	73	255	255
-0.106	0.725	1.29	73	255	255
-0.106	0.719	1.29	73	255	255
-0.105	0.709	1.33	73	255	255
-0.105	0.703	1.33	75	255	254
-0.105	0.697	1.33	75	255	254
-0.105	0.691	1.33	75	255	254
-0.105	0.685	1.33	75	255	254
-0.105	0.679	1.33	75	255	254
-0.105	0.673	1.33	75	255	254
-0.105	0.667	1.33	76	255	255
-0.105	0.661	1.33	75	255	254
-0.105	0.656	1.33	75	255	254
-0.105	0.65	1.33	76	255	255
-0.105	0.644	1.33	77	255	255
-0.105	0.638	1.33	77	255	255
-0.105	0.632	1.33	77	255	255
-0.105	0.622	1.37	77	255	255
-0.105	0.616	1.37	77	255	255
-0.105	0.61	1.37	77	255	255
-0.105	0.604	1.37	77	255	255
-0.105	0.598	1.37	77	255	255
-0.105	0.593	1.37	77	255	255
-0.105	0.587	1.37	77	255	255
-0.105	0.581	1.37	77	255	255
-0.105	0.575	1.37	77	255	255
-0.105	0.569	1.37	79	255	255
-0.105	0.563	1.37	79	255	255
-0.105	0.557	1.37	79	255	255
-0.105	0.551	1.37	79	255	255
-0.105	0.546	1.37	79	255	255
-0.105	0.54	1.37	79	255	255
-0.105	0.534	1.37	79	255	255
-0.104	0.525	1.41	79	255	255
-0.104	0.519	1.41	79	255	255
-0.104	0.513	1.41	79	255	255
-0.104	0.507	1.41	79	255	255
-0.104	0.501	1.41	79	255	255
-0.104	0.495	1.41	79	255	255
-0.104	0.489	1.41	79	255	255
-0.104	0.484	1.41	79	255	255
-0.104	0.478	1.41	79	255	255
-0.104	0.472	1.41	79	255	255
-0.104	0.466	1.41	79	255	255
-0.104	0.46	1.41	79	255	255
-0.104	0.454	1.41	79	255	255
-0.104	0.449	1.41	79	255	255
-0.104	0.443	1.41	79	255	255
-0.104	0.437	1.41	79	255	255
-0.104	0.431	1.41	79	255	255
-0.104	0.425	1.41	79	255	255
-0.104	0.419	1.41	79	255	255
-0.104	0.413	1.41	77	255	255
-0.104	0.408	1.41	77	255	255
-0.103	0.399	1.45	77	255	255
-0.103	0.393	1.45	77	255	255
-0.103	0.388	1.45	77	255	255
-0.103	0.382	1.45	77	255	255
-0.103	0.376	1.45	77	255	255
-0.103	0.37	1.45	77	255	255
-0.103	0.364	1.45	77	255	255
-0.103	0.359	1.45	77	255	255
-0.103	0.353	1.45	77	255	255
-0.103	0.347	1.45	77	255	255
-0.103	0.341	1.45	77	255	255
-0.103	0.335	1.45	77	255	255
-0.103	0.33	1.45	77	255	255
-0.103	0.324	1.45	77	255	255
-0.103	0.318	1.45	77	255	255
-0.103	0.312	1.45	77	255	255
-0.103	0.306	1.45	77	255	255
-0.103	0.301	1.45	77	255	255
-0.103	0.295	1.45	75	255	254
-0.103	0.289	1.45	75	255	254
-0.103	0.283	1.45	75	255	254
-0.103	0.277	1.45	75	255	254
-0.103	0.271	1.45	75	255	254
-0.103	0.266	1.45	75	255	254
-0.103	0.26	1.45	75	255	254
-0.103	0.254	1.45	75	255	254
-0.103	0.248	1.45	75	255	254
-0.103	0.242	1.45	75	255	254
-0.103	0.237	1.45	73	255	255
-0.103	0.231	1.45	73	255	255
-0.103	0.225	1.45	73	255	255
-0.103	0.219	1.45	73	255	255
-0.103	0.212	1.49	73	255	255
-0.103	0.206	1.49	73	255	255
-0.103	0.2	1.49	73	255	255
-0.103	0.195	1.49	73	255	255
-0.103	0.189	1.49	73	255	255
-0.103	0.183	1.49	73	255	255
-0.103	0.177	1.49	72	255	255
-0.103	0.172	1.49	72	255	255
-0.103	0.166	1.49	71	255	255
-0.103	0.16	1.49	71	255	255
-0.103	0.154	1.49	71	255	255
-0.103	0.149	1.49	71	255	255
-0.103	0.143	1.49	71	255	255
-0.103	0.137	1.49	71	255	255
-0.103	0.131	1.49	71	255	255
-0.103	0.125	1.49	71	255	255
-0.103	0.12	1.49	70	255	255
-0.103	0.114	1.49	70	255	255
-0.103	0.108	1.49	70	255	255
-0.103	0.102	1.49	70	255	255
-0.103	0.0965	1.49	69	254	255
-0.103	0.0908	1.49	69	254	255
-0.103	0.085	1.49	69	254	255
-0.103	0.0792	1.49	69	254	255
-0.103	0.0735	1.49	67	255	255
-0.103	0.0677	1.49	67	255	255
-0.103	0.0619	1.49	67	255	255
-0.103	0.0561	1.49	66	254	255
-0.103	0.0504	1.49	68	253	255
-0.103	0.0446	1.49	68	253	255
-0.103	0.0388	1.49	67	252	255
-0.103	0.033	1.49	66	251	254
-0.103	0.0273	1.49	67	250	254
-0.103	0.0215	1.49	67	250	254
-0.103	0.0157	1.49	67	250	255
-0.103	0.00994	1.49	66	249	255
-0.103	0.00416	1.49	67	248	255
-0.103	-0.00161	1.49	66	247	254
-0.103	-0.00739	1.49	66	247	255
-0.103	-0.0132	1.49	66	247	255
-0.103	-0.0189	1.49	67	245	255
-0.103	-0.0247	1.49	67	245	255
-0.103	-0.0305	1.49	67	245	255
-0.103	-0.0363	1.49	66	244	255
-0.103	-0.042	1.49	67	243	255
-0.103	-0.0478	1.49	66	242	255
-0.103	-0.0536	1.49	66	242	255
-0.103	-0.0594	1.49	65	241	255
-0.103	-0.0651	1.49	67	240	255
-0.103	-0.0709	1.49	67	240	255
-0.103	-0.0767	1.49	66	239	255
-0.103	-0.0825	1.49	66	239	255
-0.103	-0.0882	1.49	68	239	255
-0.103	-0.094	1.49	66	237	255
-0.103	-0.0998	1.49	66	235	254
-0.103	-0.106	1.49	66	235	254
-0.103	-0.111	1.49	66	235	255
-0.103	-0.117	1.49	65	234	255
-0.103	-0.123	1.49	65	234	255
-0.103	-0.129	1.49	64	233	254
-0.103	-0.134	1.49	65	234	255
-0.103	-0.14	1.49	65	234	255
-0.103	-0.146	1.49	65	234	255
-0.103	-0.152	1.49	65	234	255
-0.103	-0.158	1.49	65	234	255
-0.103	-0.163	1.49	65	234	255
-0.103	-0.169	1.49	65	234	255
-0.103	-0.175	1.49	65	234	255
-0.103	-0.181	1.49	67	233	255
-0.103	-0.186	1.49	67	233	255
-0.103	-0.192	1.49	65	234	255
-0.104	-0.199	1.45	65	234	255
-0.103	-0.204	1.49	65	234	255
-0.104	-0.211	1.45	65	234	255
-0.104	-0.217	1.45	65	236	254
-0.104	-0.222	1.45	65	236	254
-0.104	-0.228	1.45	65	236	254
-0.104	-0.234	1.45	66	237	255
-0.104	-0.24	1.45	65	238	255
-0.104	-0.246	1.45	65	238	255
-0.104	-0.251	1.45	66	239	255
-0.104	-0.257	1.45	64	240	255
-0.104	-0.263	1.45	64	240	255
-0.104	-0.269	1.45	65	241	255
-0.104	-0.275	1.45	65	241	255
-0.104	-0.281	1.45	65	241	255
-0.104	-0.286	1.45	65	243	255
-0.104	-0.292	1.45	65	243	255
-0.104	-0.298	1.45	66	244	255
-0.104	-0.304	1.45	66	244	255
-0.104	-0.31	1.45	64	245	254
-0.104	-0.315	1.45	64	245	254
-0.104	-0.321	1.45	65	246	255
-0.104	-0.327	1.45	65	246	255
-0.104	-0.333	1.45	64	247	255
-0.104	-0.339	1.45	64	247	255
-0.104	-0.344	1.45	65	246	253
-0.103	-0.35	1.45	66	247	254
-0.103	-0.356	1.45	65	248	255
-0.103	-0.362	1.45	66	249	255
-0.103	-0.368	1.45	66	249	255
-0.103	-0.374	1.45	67	250	254
-0.103	-0.379	1.45	67	250	254
-0.103	-0.385	1.45	67	250	254
-0.104	-0.393	1.41	67	250	254
-0.104	-0.399	1.41	68	251	255
-0.104	-0.405	1.41	67	252	254
-0.104	-0.411	1.41	68	253	255
-0.104	-0.417	1.41	68	253	255
-0.104	-0.423	1.41	68	253	255
-0.104	-0.429	1.41	68	253	255
-0.104	-0.434	1.41	69	254	255
-0.104	-0.44	1.41	69	255	254
-0.104	-0.446	1.41	70	255	255
-0.104	-0.452	1.41	69	255	254
-0.104	-0.458	1.41	69	255	254
-0.104	-0.464	1.41	70	255	255
-0.104	-0.469	1.41	70	255	255
-0.104	-0.475	1.41	70	255	255
-0.104	-0.481	1.41	70	255	255
-0.104	-0.487	1.41	70	255	255
-0.104	-0.493	1.41	70	255	255
-0.104	-0.499	1.41	70	255	255
-0.104	-0.505	1.41	70	255	255
-0.104	-0.51	1.41	71	255	255
-0.105	-0.519	1.37	71	255	255
-0.105	-0.525	1.37	71	255	255
-0.105	-0.531	1.37	71	255	255
-0.105	-0.537	1.37	71	255	255
-0.105	-0.543	1.37	71	255	255
-0.105	-0.549	1.37	71	255	255
-0.105	-0.555	1.37	71	255	255
-0.105	-0.561	1.37	71	255	255
-0.105	-0.567	1.37	71	255	255
-0.105	-0.572	1.37	71	255	255
-0.105	-0.578	1.37	71	255	255
-0.105	-0.584	1.37	71	255	255
-0.105	-0.59	1.37	71	255	255
-0.105	-0.596	1.37	71	255	255
-0.105	-0.602	1.37	71	255	255
-0.105	-0.608	1.37	71	255	255
-0.105	-0.614	1.37	71	255	255
-0.105	-0.623	1.33	71	255	255
-0.105	-0.629	1.33	71	255	255
-0.105	-0.635	1.33	71	255	255
-0.105	-0.641	1.33	71	255	255
-0.105	-0.647	1.33	71	255	255
-0.105	-0.653	1.33	71	255	255
-0.105	-0.659	1.33	71	255	255
-0.105	-0.665	1.33	71	255	255
-0.105	-0.671	1.33	71	255	255
-0.105	-0.677	1.33	71	255	255
-0.105	-0.683	1.33	71	255	255
-0.105	-0.689	1.33	71	255	255
-0.106	-0.699	1.29	71	255	255
-0.106	-0.705	1.29	71	255	255
-0.106	-0.711	1.29	71	255	255
-0.106	-0.717	1.29	70	254	254
-0.106	-0.723	1.29	70	254	255
-0.106	-0.729	1.29	69	253	255
-0.106	-0.735	1.29	71	253	255
-0.106	-0.741	1.29	70	252	255
-0.106	-0.747	1.29	70	252	255
-0.106	-0.753	1.29	69	251	254
-0.106	-0.759	1.29	71	250	255
-0.106	-0.765	1.28	70	249	254
-0.107	-0.775	1.24	70	249	254
-0.107	-0.781	1.24	69	248	255
-0.107	-0.787	1.24	69	248	255
-0.107	-0.793	1.24	68	247	254
-0.107	-0.799	1.24	68	246	255
-0.107	-0.805	1.24	67	245	255
-0.107	-0.811	1.24	68	245	255
-0.107	-0.817	1.24	67	243	255
-0.107	-0.823	1.24	67	243	255
-0.107	-0.829	1.24	65	241	255
-0.107	-0.841	1.2	67	240	255
-0.107	-0.847	1.2	66	239	255
-0.107	-0.853	1.2	65	238	255
-0.107	-0.859	1.2	65	238	255
-0.107	-0.865	1.2	64	236	255
-0.107	-0.871	1.2	63	235	255
-0.107	-0.877	1.2	64	235	255
-0.107	-0.883	1.2	64	235	255
-0.107	-0.889	1.2	64	233	254
-0.108	-0.901	1.16	63	232	253
-0.108	-0.907	1.16	63	232	253
-0.108	-0.913	1.16	62	231	250
-0.108	-0.919	1.16	62	231	250
-0.108	-0.925	1.16	61	230	249
-0.108	-0.931	1.16	62	229	248
-0.108	-0.937	1.16	62	229	248
-0.108	-0.943	1.16	62	229	248
-0.109	-0.956	1.11	61	226	246
-0.109	-0.962	1.11	60	225	245
-0.109	-0.968	1.11	60	225	245
-0.109	-0.974	1.11	61	223	244
-0.109	-0.98	1.11	60	222	243
-0.109	-0.986	1.11	59	221	242
-0.109	-0.992	1.11	59	219	241
-0.11	-1	1.07	58	218	242
-0.11	-1.01	1.07	58	216	241
-0.11	-1.02	1.07	57	215	240
-0.11	-1.02	1.07	55	213	240
-0.11	-1.03	1.07	57	212	240
-0.11	-1.04	1.07	55	210	238
-0.11	-1.05	1.02	55	209	237
-0.11	-1.05	1.02	54	207	238
-0.11	-1.06	1.02	55	206	237
-0.11	-1.07	1.02	52	201	234
-0.105	1.14	0.947	55	203	217
-0.104	1.12	0.992	53	202	226
-0.104	1.11	0.992	52	202	227
-0.104	1.11	0.992	53	203	230
-0.104	1.1	0.992	52	201	231
-0.104	1.09	0.992	54	203	233
-0.104	1.08	1.04	53	204	235
-0.104	1.07	1.04	54	205	236
-0.104	1.07	1.04	52	205	237
-0.104	1.06	1.04	53	206	238
-0.104	1.05	1.04	54	207	241
-0.104	1.05	1.04	55	208	242
-0.103	1.04	1.08	55	210	241
-0.103	1.03	1.08	56	211	242
-0.103	1.02	1.08	55	212	243
-0.103	1.02	1.08	56	213	244
-0.103	1.01	1.08	56	215	245
-0.103	1.01	1.08	57	216	246
-0.102	0.993	1.13	59	218	248
-0.102	0.987	1.13	59	218	248
-0.102	0.98	1.13	58	219	248
-0.102	0.974	1.13	58	219	248
-0.102	0.968	1.13	59	220	249
-0.102	0.962	1.13	60	221	250
-0.102	0.956	1.13	59	222	253
-0.102	0.95	1.13	60	223	254
-0.102	0.938	1.17	58	223	253
-0.102	0.932	1.17	59	224	254
-0.102	0.926	1.17	59	224	254
-0.102	0.92	1.17	59	224	254
-0.102	0.914	1.17	60	225	255
-0.102	0.907	1.17	61	226	255
-0.102	0.901	1.17	60	228	255
-0.102	0.895	1.17	61	229	255
-0.101	0.884	1.21	62	231	254
-0.101	0.878	1.21	63	232	255
-0.101	0.872	1.21	64	235	255
-0.101	0.866	1.21	65	236	255
-0.101	0.86	1.21	65	238	255
-0.101	0.854	1.21	65	238	255
-0.101	0.847	1.21	65	241	255
-0.101	0.841	1.21	64	240	255
-0.101	0.835	1.21	66	242	255
-0.101	0.824	1.26	67	244	254
-0.101	0.818	1.26	67	246	253
-0.101	0.812	1.26	68	247	254
-0.101	0.806	1.26	67	248	255
-0.101	0.8	1.26	67	248	255
-0.101	0.794	1.26	69	251	255
-0.101	0.788	1.26	69	251	255
-0.101	0.782	1.26	69	253	255
-0.101	0.776	1.26	69	253	255
-0.101	0.77	1.26	70	254	254
-0.0999	0.759	1.3	71	255	255
-0.0999	0.754	1.3	71	255	255
-0.0999	0.748	1.3	72	255	255
-0.0999	0.742	1.3	73	255	255
-0.0999	0.736	1.3	73	255	255
-0.0999	0.73	1.3	73	255	255
-0.0999	0.724	1.3	73	255	255
-0.0999	0.718	1.3	73	255	255
-0.0999	0.712	1.3	73	255	255
-0.0999	0.706	1.3	75	255	254
-0.0999	0.7	1.3	75	255	254
-0.0999	0.694	1.3	75	255	254
-0.0993	0.684	1.34	75	255	254
-0.0993	0.678	1.34	75	255	254
-0.0993	0.672	1.34	75	255	254
-0.0993	0.666	1.34	76	255	255
-0.0993	0.66	1.34	75	255	254
-0.0993	0.654	1.34	75	255	254
-0.0993	0.648	1.34	76	255	255
-0.0993	0.642	1.34	77	255	255
-0.0993	0.637	1.34	77	255	255
-0.0993	0.631	1.34	77	255	255
-0.0993	0.625	1.34	77	255	255
-0.0993	0.619	1.34	77	255	255
-0.0993	0.613	1.34	77	255	255
-0.0993	0.607	1.34	77	255	255
-0.0993	0.601	1.34	77	255	255
-0.0986	0.591	1.38	77	255	255
-0.0986	0.586	1.38	77	255	255
-0.0986	0.58	1.38	77	255	255
-0.0986	0.574	1.38	77	255	255
-0.0987	0.568	1.38	79	255	255
-0.0987	0.562	1.38	79	255	255
-0.0987	0.556	1.38	79	255	255
-0.0987	0.55	1.38	79	255	255
-0.0987	0.544	1.38	79	255	255
-0.0987	0.539	1.38	79	255	255
-0.0987	0.533	1.38	79	255	255
-0.0987	0.527	1.38	79	255	255
-0.0987	0.521	1.38	79	255	255
-0.0987	0.515	1.38	79	255	255
-0.0987	0.509	1.38	79	255	255
-0.0987	0.503	1.38	79	255	255
-0.0987	0.497	1.38	79	255	255
-0.098	0.488	1.43	79	255	255
-0.098	0.483	1.43	79	255	255
-0.098	0.477	1.43	79	255	255
-0.098	0.471	1.43	79	255	255
-0.098	0.465	1.43	79	255	255
-0.098	0.459	1.43	79	255	255
-0.098	0.453	1.43	79	255	255
-0.098	0.448	1.43	79	255	255
-0.098	0.442	1.43	79	255	255
-0.098	0.436	1.43	79	255	255
-0.098	0.43	1.43	79	255	255
-0.098	0.424	1.43	79	255	255
-0.098	0.418	1.43	79	255	255
-0.098	0.413	1.43	77	255	255
-0.098	0.407	1.43	77	255	255
-0.0981	0.401	1.43	77	255	255
-0.0981	0.395	1.43	77	255	255
-0.0981	0.389	1.43	77	255	255
-0.0981	0.383	1.43	77	255	255
-0.0981	0.378	1.43	77	255	255
-0.0981	0.372	1.43	77	255	255
-0.0981	0.366	1.43	77	255	255
-0.0981	0.36	1.43	77	255	255
-0.0974	0.352	1.47	77	255	255
-0.0974	0.346	1.47	77	255	255
-0.0974	0.34	1.47	77	255	255
-0.0974	0.335	1.47	77	255	255
-0.0974	0.329	1.47	77	255	255
-0.0974	0.323	1.47	77	255	255
-0.0974	0.317	1.47	77	255	255
-0.0974	0.311	1.47	77	255	255
-0.0974	0.306	1.47	76	254	254
-0.0974	0.3	1.47	76	254	254
-0.0974	0.294	1.47	75	255	254
-0.0974	0.288	1.47	75	255	254
-0.0974	0.283	1.47	75	255	254
-0.0974	0.277	1.47	75	255	254
-0.0974	0.271	1.47	75	255	254
-0.0974	0.265	1.47	75	255	254
-0.0974	0.259	1.47	75	255	254
-0.0974	0.254	1.47	75	255	254
-0.0974	0.248	1.47	75	255	254
-0.0974	0.242	1.47	75	255	254
-0.0975	0.236	1.47	73	255	255
-0.0975	0.23	1.47	73	255	255
-0.0975	0.225	1.47	73	255	255
-0.0975	0.219	1.47	73	255	255
-0.0975	0.213	1.47	73	255	255
-0.0975	0.207	1.47	73	255	255
-0.0975	0.201	1.47	73	255	255
-0.0975	0.196	1.47	73	255	255
-0.0975	0.19	1.47	73	255	255
-0.0975	0.184	1.47	73	255	255
-0.0975	0.178	1.47	72	255	255
-0.0975	0.172	1.47	71	255	255
-0.0975	0.167	1.47	71	255	255
-0.0975	0.161	1.47	71	255	255
-0.0975	0.155	1.47	71	255	255
-0.0975	0.149	1.47	71	255	255
-0.0975	0.143	1.47	71	255	255
-0.0975	0.138	1.47	71	255	255
-0.0975	0.132	1.47	71	255	255
-0.0975	0.126	1.47	71	255	255
-0.0975	0.12	1.47	70	255	255
-0.0975	0.114	1.47	70	255	255
-0.0975	0.109	1.47	70	255	255
-0.0975	0.103	1.47	69	255	254
-0.0975	0.097	1.47	69	254	255
-0.0975	0.0912	1.47	69	254	255
-0.0968	0.0848	1.51	69	254	255
-0.0968	0.0791	1.51	69	254	255
-0.0968	0.0733	1.51	67	255	255
-0.0969	0.0675	1.51	67	255	255
-0.0969	0.0618	1.51	66	254	255
-0.0969	0.056	1.51	66	254	255
-0.0969	0.0503	1.51	68	253	255
-0.0969	0.0445	1.51	67	252	254
-0.0969	0.0387	1.51	67	252	255
-0.0969	0.033	1.51	66	251	254
-0.0969	0.0272	1.51	67	250	254
-0.0969	0.0214	1.51	67	250	254
-0.0969	0.0157	1.51	66	249	255
-0.0969	0.00992	1.51	65	248	254
-0.0969	0.00415	1.51	66	247	254
-0.0969	-0.00161	1.51	66	247	254
-0.0969	-0.00737	1.51	66	247	255
-0.0969	-0.0131	1.51	65	246	255
-0.0969	-0.0189	1.51	67	245	255
-0.0969	-0.0247	1.51	67	245	255
-0.0969	-0.0304	1.51	66	244	255
-0.0969	-0.0362	1.51	65	243	255
-0.0969	-0.0419	1.51	66	242	255
-0.0969	-0.0477	1.51	67	243	255
-0.0969	-0.0535	1.51	65	241	255
-0.0969	-0.0592	1.51	65	241	255
-0.0975	-0.0654	1.47	67	240	255
-0.0969	-0.0708	1.51	66	239	255
-0.0975	-0.077	1.47	66	239	255
-0.0975	-0.0828	1.47	66	239	255
-0.0975	-0.0886	1.47	66	237	255
-0.0975	-0.0944	1.47	65	236	254
-0.0975	-0.1	1.47	66	235	254
-0.0975	-0.106	1.47	66	235	254
-0.0975	-0.112	1.47	65	234	255
-0.0975	-0.118	1.47	65	234	255
-0.0975	-0.123	1.47	65	234	255
-0.0975	-0.129	1.47	65	234	255
-0.0975	-0.135	1.47	65	234	255
-0.0975	-0.141	1.47	65	234	255
-0.0975	-0.147	1.47	65	234	255
-0.0975	-0.152	1.47	65	234	255
-0.0975	-0.158	1.47	65	234	255
-0.0975	-0.164	1.47	65	234	255
-0.0975	-0.17	1.47	65	234	255
-0.0975	-0.176	1.47	65	234	255
-0.0975	-0.181	1.47	67	233	255
-0.0975	-0.187	1.47	67	233	255
-0.0975	-0.193	1.47	65	234	255
-0.0975	-0.199	1.47	65	234	255
-0.0975	-0.205	1.47	65	234	255
-0.0975	-0.21	1.47	66	235	255
-0.0975	-0.216	1.47	65	236	254
-0.0975	-0.222	1.47	65	236	254
-0.0975	-0.228	1.47	66	237	255
-0.0975	-0.234	1.47	67	238	255
-0.0975	-0.239	1.47	65	238	255
-0.0975	-0.245	1.47	66	239	255
-0.0975	-0.251	1.47	65	241	255
-0.0975	-0.257	1.47	64	240	255
-0.0975	-0.263	1.47	65	241	255
-0.0975	-0.268	1.47	65	241	255
-0.0975	-0.274	1.47	65	241	255
-0.0975	-0.28	1.47	66	242	255
-0.0975	-0.286	1.47	65	243	255
-0.0975	-0.292	1.47	66	244	255
-0.0975	-0.297	1.47	66	244	255
-0.0975	-0.303	1.47	66	244	255
-0.0975	-0.309	1.47	64	245	254
-0.0975	-0.315	1.47	64	245	254
-0.0975	-0.321	1.47	65	246	255
-0.0975	-0.326	1.47	65	246	255
-0.0975	-0.332	1.47	64	247	255
-0.0975	-0.338	1.47	64	247	255
-0.0975	-0.344	1.47	66	247	254
-0.0981	-0.352	1.42	66	247	254
-0.0981	-0.358	1.42	66	249	255
-0.0981	-0.363	1.42	66	249	255
-0.0981	-0.369	1.42	67	250	254
-0.0981	-0.375	1.42	67	250	254
-0.0981	-0.381	1.42	67	250	254
-0.0981	-0.387	1.42	67	250	254
-0.0981	-0.393	1.42	67	250	254
-0.0981	-0.398	1.42	68	251	255
-0.0981	-0.404	1.42	68	253	255
-0.0981	-0.41	1.42	68	253	255
-0.0981	-0.416	1.42	69	254	255
-0.0981	-0.422	1.42	69	254	255
-0.0981	-0.428	1.42	68	253	255
-0.0981	-0.433	1.42	69	254	255
-0.0981	-0.439	1.42	69	255	254
-0.0981	-0.445	1.42	69	255	254
-0.0981	-0.451	1.42	70	255	255
-0.0981	-0.457	1.42	70	255	255
-0.0981	-0.463	1.42	70	255	255
-0.0981	-0.468	1.42	70	255	255
-0.0981	-0.474	1.42	70	255	255
-0.0987	-0.483	1.38	70	255	255
-0.0987	-0.489	1.38	70	255	255
-0.0987	-0.495	1.38	70	255	255
-0.0987	-0.501	1.38	70	255	255
-0.0987	-0.507	1.38	70	255	255
-0.0987	-0.513	1.38	71	255	255
-0.0987	-0.518	1.38	71	255	255
-0.0987	-0.524	1.38	71	255	255
-0.0987	-0.53	1.38	71	255	255
-0.0987	-0.536	1.38	71	255	255
-0.0987	-0.542	1.38	71	255	255
-0.0987	-0.548	1.38	71	255	255
-0.0987	-0.554	1.38	71	255	255
-0.0987	-0.56	1.38	71	255	255
-0.0987	-0.565	1.38	71	255	255
-0.0987	-0.571	1.38	71	255	255
-0.0987	-0.577	1.38	71	255	255
-0.0993	-0.587	1.34	71	255	255
-0.0993	-0.593	1.34	71	255	255
-0.0993	-0.599	1.34	71	255	255
-0.0993	-0.604	1.34	71	255	255
-0.0993	-0.61	1.34	71	255	255
-0.0993	-0.616	1.34	71	255	255
-0.0993	-0.622	1.34	71	255	255
-0.0993	-0.628	1.34	71	255	255
-0.0993	-0.634	1.34	71	255	255
-0.0993	-0.64	1.34	71	255	255
-0.0993	-0.646	1.34	71	255	255
-0.0993	-0.652	1.34	71	255	255
-0.0993	-0.658	1.34	71	255	255
-0.0993	-0.664	1.34	71	255	255
-0.0993	-0.669	1.34	71	255	255
-0.0999	-0.68	1.3	71	255	255
-0.0999	-0.686	1.3	71	255	255
-0.0999	-0.692	1.3	71	255	255
-0.0999	-0.698	1.3	71	255	255
-0.0999	-0.703	1.3	71	255	255
-0.0999	-0.709	1.3	71	255	255
-0.0999	-0.715	1.3	71	255	255
-0.0999	-0.721	1.3	70	254	255
-0.0999	-0.727	1.3	70	254	255
-0.0999	-0.733	1.3	71	253	255
-0.0999	-0.739	1.3	71	253	255
-0.0999	-0.745	1.3	70	252	255
-0.101	-0.756	1.26	70	252	255
-0.101	-0.762	1.26	71	250	255
-0.101	-0.768	1.26	72	251	255
-0.101	-0.774	1.26	70	249	254
-0.101	-0.78	1.26	70	249	254
-0.101	-0.786	1.26	69	248	255
-0.101	-0.792	1.26	69	248	255
-0.101	-0.798	1.26	68	246	255
-0.101	-0.804	1.26	68	246	255
-0.101	-0.81	1.26	68	245	255
-0.101	-0.821	1.21	67	244	254
-0.101	-0.827	1.21	67	243	255
-0.101	-0.833	1.21	66	242	255
-0.101	-0.839	1.21	67	240	255
-0.101	-0.845	1.21	66	239	255
-0.101	-0.851	1.21	67	240	255
-0.101	-0.857	1.21	65	238	255
-0.101	-0.863	1.21	65	238	255
-0.101	-0.869	1.21	64	236	255
-0.102	-0.881	1.17	64	235	255
-0.102	-0.887	1.17	63	234	254
-0.102	-0.893	1.17	64	233	254
-0.102	-0.899	1.17	65	234	255
-0.102	-0.905	1.17	63	232	251
-0.102	-0.911	1.17	62	231	250
-0.102	-0.917	1.17	61	230	249
-0.102	-0.923	1.17	61	230	249
-0.102	-0.935	1.13	63	230	249
-0.102	-0.941	1.13	62	229	248
-0.102	-0.947	1.13	62	229	248
-0.102	-0.954	1.13	61	228	247
-0.102	-0.96	1.13	60	225	245
-0.102	-0.966	1.13	60	225	245
-0.102	-0.972	1.13	61	223	244
-0.102	-0.978	1.13	61	223	244
-0.103	-0.99	1.08	59	221	242
-0.103	-0.997	1.08	59	219	241
-0.103	-1	1.08	59	217	242
-0.103	-1.01	1.08	58	216	241
-0.103	-1.02	1.08	58	216	241
-0.103	-1.02	1.08	56	214	239
-0.104	-1.03	1.04	57	212	240
-0.104	-1.04	1.04	56	211	239
-0.104	-1.05	1.04	55	209	237
-0.104	-1.05	1.04	54	208	236
-0.104	-1.06	1.04	54	205	236
-0.104	-1.06	1.04	53	204	235
-0.104	-1.08	0.991	52	201	234
-0.104	-1.08	0.991	51	200	233
-0.0992	1.17	0.915	54	201	209
-0.0986	1.15	0.961	54	202	214
-0.0986	1.14	0.961	55	203	217
-0.0979	1.1	1.01	53	203	230
-0.0979	1.1	1.01	53	202	232
-0.0979	1.09	1.01	53	202	234
-0.0979	1.08	1.01	53	204	235
-0.0979	1.08	1.01	54	205	236
-0.0973	1.07	1.05	53	206	238
-0.0973	1.06	1.05	53	206	238
-0.0973	1.05	1.05	53	206	240
-0.0973	1.05	1.05	55	208	242
-0.0973	1.04	1.05	55	209	243
-0.0973	1.03	1.05	55	209	243
-0.0967	1.02	1.1	55	212	243
-0.0967	1.02	1.1	56	213	244
-0.0967	1.01	1.1	56	215	245
-0.0967	1	1.1	57	216	246
-0.0967	0.997	1.1	58	217	247
-0.0967	0.991	1.1	59	218	248
-0.0961	0.978	1.14	58	219	248
-0.0961	0.972	1.14	59	220	249
-0.0961	0.966	1.14	59	219	251
-0.0961	0.96	1.14	60	220	252
-0.0961	0.954	1.14	59	222	253
-0.0961	0.948	1.14	59	222	253
-0.0961	0.942	1.14	59	222	255
-0.0961	0.936	1.14	60	223	255
-0.0955	0.924	1.18	59	224	254
-0.0955	0.918	1.18	59	224	254
-0.0955	0.912	1.18	60	225	255
-0.0955	0.906	1.18	60	225	255
-0.0955	0.9	1.18	60	228	255
-0.0955	0.894	1.18	60	228	255
-0.0955	0.887	1.18	62	230	255
-0.0955	0.881	1.18	63	232	255
-0.0955	0.875	1.18	63	234	254
-0.0949	0.864	1.23	65	236	255
-0.0949	0.858	1.23	66	237	255
-0.0949	0.852	1.23	66	237	255
-0.0949	0.846	1.23	66	239	255
-0.0949	0.84	1.23	67	240	255
-0.0949	0.834	1.23	66	242	255
-0.0949	0.828	1.23	66	242	255
-0.0949	0.822	1.23	68	245	255
-0.0949	0.816	1.23	69	246	255
-0.0943	0.805	1.27	68	247	254
-0.0943	0.799	1.27	68	247	254
-0.0943	0.793	1.27	70	249	254
-0.0943	0.787	1.27	71	250	255
-0.0943	0.781	1.27	70	252	255
-0.0943	0.775	1.27	70	252	255
-0.0943	0.769	1.27	70	254	254
-0.0943	0.763	1.27	70	254	254
-0.0943	0.757	1.27	71	255	255
-0.0943	0.751	1.27	71	255	255
-0.0943	0.745	1.27	73	255	255
-0.0937	0.734	1.31	73	255	255
-0.0937	0.728	1.31	73	255	255
-0.0937	0.722	1.31	73	255	255
-0.0937	0.716	1.31	73	255	255
-0.0937	0.71	1.31	73	255	255
-0.0937	0.705	1.31	73	255	255
-0.0937	0.699	1.31	73	255	255
-0.0937	0.693	1.31	75	255	254
-0.0937	0.687	1.31	75	255	254
-0.0937	0.681	1.31	75	255	254
-0.0937	0.675	1.31	75	255	254
-0.0937	0.669	1.31	75	255	254
-0.0937	0.663	1.31	75	255	254
-0.0931	0.653	1.36	75	255	254
-0.0931	0.647	1.36	75	255	254
-0.0931	0.641	1.36	75	255	254
-0.0931	0.635	1.36	76	255	255
-0.0931	0.629	1.36	77	255	255
-0.0931	0.623	1.36	77	255	255
-0.0931	0.618	1.36	77	255	255
-0.0931	0.612	1.36	77	255	255
-0.0931	0.606	1.36	77	255	255
-0.0931	0.6	1.36	77	255	255
-0.0931	0.594	1.36	77	255	255
-0.0931	0.588	1.36	77	255	255
-0.0931	0.582	1.36	77	255	255
-0.0931	0.576	1.36	77	255	255
-0.0931	0.57	1.36	77	255	255
-0.0926	0.561	1.4	77	255	255
-0.0926	0.555	1.4	77	255	255
-0.0926	0.549	1.4	77	255	255
-0.0926	0.543	1.4	77	255	255
-0.0926	0.537	1.4	77	255	255
-0.0926	0.532	1.4	77	255	255
-0.0926	0.526	1.4	77	255	255
-0.0926	0.52	1.4	79	255	255
-0.0926	0.514	1.4	79	255	255
-0.0926	0.508	1.4	79	255	255
-0.0926	0.502	1.4	79	255	255
-0.0926	0.496	1.4	79	255	255
-0.0926	0.491	1.4	79	255	255
-0.0926	0.485	1.4	79	255	255
-0.0926	0.479	1.4	79	255	255
-0.0926	0.473	1.4	77	255	255
-0.0926	0.467	1.4	77	255	255
-0.0926	0.461	1.4	77	255	255
-0.0926	0.455	1.4	77	255	255
-0.092	0.447	1.44	77	255	255
-0.092	0.441	1.44	77	255	255
-0.092	0.435	1.44	77	255	255
-0.092	0.429	1.44	77	255	255
-0.092	0.423	1.44	77	255	255
-0.092	0.418	1.44	77	255	255
-0.092	0.412	1.44	77	255	255
-0.092	0.406	1.44	77	255	255
-0.092	0.4	1.44	77	255	255
-0.092	0.394	1.44	77	255	255
-0.092	0.389	1.44	77	255	255
-0.092	0.383	1.44	77	255	255
-0.092	0.377	1.44	77	255	255
-0.092	0.371	1.44	77	255	255
-0.092	0.365	1.44	77	255	255
-0.092	0.359	1.44	77	255	255
-0.092	0.354	1.44	77	255	255
-0.092	0.348	1.44	77	255	255
-0.092	0.342	1.44	77	255	255
-0.092	0.336	1.44	77	255	255
-0.092	0.33	1.44	77	255	255
-0.092	0.324	1.44	77	255	255
-0.092	0.319	1.44	77	255	255
-0.092	0.313	1.44	77	255	255
-0.092	0.307	1.44	75	255	254
-0.0914	0.299	1.48	75	255	254
-0.0914	0.293	1.48	75	255	254
-0.0914	0.288	1.48	75	255	254
-0.0914	0.282	1.48	75	255	254
-0.0914	0.276	1.48	75	255	254
-0.0914	0.27	1.48	75	255	254
-0.0914	0.265	1.48	75	255	254
-0.0914	0.259	1.48	75	255	254
-0.0914	0.253	1.48	75	255	254
-0.0914	0.247	1.48	73	255	255
-0.0914	0.241	1.48	73	255	255
-0.0914	0.236	1.48	73	255	255
-0.0914	0.23	1.48	73	255	255
-0.0914	0.224	1.48	73	255	255
-0.0914	0.218	1.48	73	255	255
-0.0914	0.212	1.48	73	255	255
-0.0914	0.207	1.48	73	255	255
-0.0914	0.201	1.48	73	255	255
-0.0914	0.195	1.48	73	255	255
-0.0914	0.189	1.48	73	255	255
-0.0914	0.184	1.48	72	254	255
-0.0914	0.178	1.48	71	255	255
-0.0914	0.172	1.48	71	255	255
-0.0914	0.166	1.48	71	255	255
-0.0914	0.16	1.48	71	255	255
-0.0914	0.155	1.48	71	255	255
-0.0914	0.149	1.48	71	255	255
-0.0914	0.143	1.48	71	255	255
-0.0914	0.137	1.48	71	255	255
-0.0914	0.131	1.48	70	255	255
-0.0914	0.126	1.48	70	255	255
-0.0914	0.12	1.48	70	255	255
-0.0914	0.114	1.48	70	255	255
-0.0914	0.108	1.48	69	255	254
-0.0914	0.103	1.48	69	255	254
-0.0914	0.0968	1.48	69	254	255
-0.0914	0.091	1.48	69	254	255
-0.0914	0.0852	1.48	67	255	255
-0.0914	0.0794	1.48	67	255	255
-0.0914	0.0736	1.48	67	255	255
-0.0914	0.0678	1.48	67	255	255
-0.0914	0.062	1.48	68	253	255
-0.0914	0.0563	1.48	68	253	255
-0.0914	0.0505	1.48	67	252	255
-0.0914	0.0447	1.48	67	252	255
-0.0914	0.0389	1.48	67	250	254
-0.0914	0.0331	1.48	67	250	254
-0.0914	0.0273	1.48	67	250	255
-0.0914	0.0215	1.48	66	249	255
-0.0914	0.0157	1.48	65	248	254
