ply
format ascii 1.0
element vertex 1630
property float32 x
property float32 y
property float32 z
property uchar red
property uchar green
property uchar blue
end_header
-0.423	0.605	1.29	40	152	136
-0.423	0.599	1.29	40	152	136
-0.423	0.593	1.29	40	152	136
-0.423	0.587	1.29	40	152	136
-0.423	0.581	1.29	40	152	136
-0.423	0.576	1.29	41	153	137
-0.423	0.57	1.29	41	153	137
-0.423	0.564	1.29	41	153	137
-0.423	0.558	1.29	42	154	138
-0.421	0.548	1.33	40	155	138
-0.421	0.543	1.33	40	155	138
-0.421	0.537	1.33	40	156	137
-0.421	0.531	1.33	41	157	138
-0.421	0.525	1.33	41	156	139
-0.421	0.519	1.33	41	156	139
-0.421	0.513	1.33	41	156	139
-0.421	0.507	1.33	41	156	139
-0.421	0.501	1.33	42	158	139
-0.421	0.495	1.33	42	158	139
-0.421	0.489	1.33	42	157	140
-0.421	0.483	1.33	42	157	140
-0.421	0.477	1.33	42	157	140
-0.421	0.472	1.33	42	157	140
-0.421	0.466	1.33	42	157	140
-0.421	0.46	1.33	42	157	140
-0.421	0.454	1.33	41	158	140
-0.418	0.445	1.37	41	158	140
-0.418	0.439	1.37	41	158	140
-0.418	0.434	1.37	41	158	140
-0.418	0.428	1.37	41	158	142
-0.418	0.422	1.37	41	158	142
-0.418	0.416	1.37	41	158	142
-0.418	0.41	1.37	41	158	142
-0.418	0.404	1.37	42	159	143
-0.418	0.398	1.37	42	159	143
-0.418	0.392	1.37	42	159	143
-0.418	0.386	1.37	42	159	143
-0.418	0.381	1.37	42	158	145
-0.418	0.375	1.37	42	158	145
-0.418	0.369	1.37	42	158	145
-0.418	0.363	1.37	42	158	145
-0.418	0.357	1.37	42	158	145
-0.418	0.351	1.37	42	158	145
-0.418	0.345	1.37	42	158	145
-0.418	0.339	1.37	42	158	145
-0.418	0.334	1.37	42	158	147
-0.418	0.328	1.37	42	158	147
-0.418	0.322	1.37	42	158	147
-0.418	0.316	1.37	42	158	147
-0.416	0.308	1.41	42	158	149
-0.416	0.302	1.41	41	157	148
-0.416	0.297	1.41	41	157	148
-0.416	0.291	1.41	41	157	148
-0.416	0.285	1.41	41	157	148
-0.416	0.279	1.41	41	157	148
-0.416	0.273	1.41	41	156	149
-0.416	0.267	1.41	41	156	149
-0.416	0.261	1.41	41	156	149
-0.416	0.256	1.41	41	156	149
-0.416	0.25	1.41	41	156	149
-0.416	0.244	1.41	41	156	149
-0.416	0.238	1.41	41	156	149
-0.416	0.232	1.41	41	156	149
-0.416	0.226	1.41	40	155	150
-0.416	0.221	1.41	40	155	150
-0.416	0.215	1.41	40	155	150
-0.416	0.209	1.41	40	155	150
-0.416	0.203	1.41	40	155	152
-0.416	0.197	1.41	40	155	152
-0.416	0.191	1.41	40	154	154
-0.416	0.185	1.41	40	154	154
-0.416	0.18	1.41	40	155	152
-0.416	0.174	1.41	40	155	152
-0.416	0.168	1.41	40	154	154
-0.416	0.162	1.41	40	154	154
-0.416	0.156	1.41	40	154	154
-0.416	0.15	1.41	39	153	153
-0.416	0.145	1.41	40	154	154
-0.416	0.139	1.41	40	154	154
-0.416	0.133	1.41	40	154	155
-0.416	0.127	1.41	39	153	154
-0.416	0.121	1.41	39	153	154
-0.416	0.115	1.41	39	153	154
-0.416	0.109	1.41	39	153	154
-0.416	0.104	1.41	39	153	154
-0.416	0.0977	1.41	39	153	154
-0.416	0.0919	1.41	39	153	154
-0.416	0.0861	1.41	39	152	156
-0.416	0.0802	1.41	39	152	156
-0.416	0.0744	1.41	39	152	156
-0.416	0.0685	1.41	39	152	156
-0.416	0.0627	1.41	39	152	158
-0.416	0.0568	1.41	39	152	158
-0.416	0.051	1.41	39	150	157
-0.416	0.0451	1.41	39	150	157
-0.416	0.0393	1.41	38	151	157
-0.416	0.0334	1.41	38	151	157
-0.416	0.0276	1.41	37	150	158
-0.416	0.0218	1.41	37	150	158
-0.416	0.0159	1.41	37	150	158
-0.416	0.0101	1.41	37	150	158
-0.416	0.00421	1.41	38	149	160
-0.416	-0.00163	1.41	38	149	160
-0.416	-0.00748	1.41	37	149	160
-0.416	-0.0133	1.41	37	149	160
-0.416	-0.0192	1.41	37	148	159
-0.416	-0.025	1.41	37	148	159
-0.416	-0.0309	1.41	37	147	160
-0.416	-0.0367	1.41	37	147	160
-0.416	-0.0426	1.41	38	148	161
-0.416	-0.0484	1.41	37	147	160
-0.416	-0.0543	1.41	35	147	159
-0.416	-0.0601	1.41	35	147	159
-0.416	-0.0659	1.41	36	146	161
-0.416	-0.0718	1.41	36	146	161
-0.416	-0.0776	1.41	35	145	160
-0.416	-0.0835	1.41	35	145	160
-0.416	-0.0893	1.41	35	145	160
-0.416	-0.0952	1.41	35	145	160
-0.416	-0.101	1.41	34	144	161
-0.416	-0.107	1.41	34	144	161
-0.416	-0.113	1.41	34	144	161
-0.416	-0.119	1.41	34	144	161
-0.416	-0.124	1.41	34	143	163
-0.416	-0.13	1.41	34	143	163
-0.416	-0.136	1.41	35	141	163
-0.416	-0.142	1.41	35	141	163
-0.416	-0.148	1.41	35	141	163
-0.416	-0.154	1.41	35	141	163
-0.416	-0.159	1.41	35	141	163
-0.416	-0.165	1.41	34	140	164
-0.416	-0.171	1.41	34	140	164
-0.416	-0.177	1.41	35	141	165
-0.416	-0.183	1.41	33	139	163
-0.416	-0.189	1.41	33	139	163
-0.416	-0.195	1.41	33	139	165
-0.416	-0.2	1.41	33	139	165
-0.416	-0.206	1.41	33	139	165
-0.416	-0.212	1.41	32	138	164
-0.416	-0.218	1.41	32	137	166
-0.416	-0.224	1.41	32	137	166
-0.416	-0.23	1.41	32	136	165
-0.416	-0.235	1.41	32	136	165
-0.416	-0.241	1.41	31	134	165
-0.416	-0.247	1.41	31	134	165
-0.416	-0.253	1.41	31	134	165
-0.416	-0.259	1.41	31	134	165
-0.416	-0.265	1.41	31	134	165
-0.416	-0.271	1.41	30	133	164
-0.416	-0.276	1.41	30	133	166
-0.416	-0.282	1.41	29	132	165
-0.416	-0.288	1.41	31	131	165
-0.416	-0.294	1.41	31	131	165
-0.419	-0.302	1.37	31	131	167
-0.419	-0.307	1.37	30	130	166
-0.419	-0.313	1.37	28	131	166
-0.419	-0.319	1.37	30	130	166
-0.419	-0.325	1.37	31	129	166
-0.419	-0.331	1.37	30	128	165
-0.419	-0.337	1.37	30	128	165
-0.419	-0.343	1.37	31	129	166
-0.419	-0.349	1.37	29	127	164
-0.419	-0.355	1.37	29	127	164
-0.419	-0.36	1.37	29	127	166
-0.419	-0.366	1.37	28	126	165
-0.419	-0.372	1.37	29	125	165
-0.419	-0.378	1.37	29	125	165
-0.419	-0.384	1.37	30	123	164
-0.419	-0.39	1.37	30	123	164
-0.419	-0.396	1.37	30	123	164
-0.419	-0.402	1.37	29	122	163
-0.419	-0.407	1.37	30	122	163
-0.419	-0.413	1.37	31	123	164
-0.419	-0.419	1.37	32	121	165
-0.419	-0.425	1.37	31	120	164
-0.419	-0.431	1.37	31	120	164
-0.421	-0.439	1.33	30	119	163
-0.421	-0.445	1.33	30	119	163
-0.421	-0.451	1.33	29	118	162
-0.421	-0.457	1.33	29	118	162
-0.421	-0.463	1.33	29	118	162
-0.421	-0.469	1.33	29	118	162
-0.421	-0.475	1.33	29	118	162
-0.421	-0.481	1.33	28	117	161
-0.421	-0.487	1.33	29	118	162
-0.421	-0.493	1.33	29	118	162
-0.421	-0.499	1.33	29	118	160
-0.421	-0.505	1.33	29	118	160
-0.421	-0.51	1.33	29	118	160
-0.421	-0.516	1.33	29	118	160
-0.421	-0.522	1.33	29	118	160
-0.421	-0.528	1.33	29	118	160
-0.423	-0.537	1.29	29	118	160
-0.421	-0.54	1.33	29	118	160
-0.423	-0.549	1.29	29	118	160
-0.423	-0.555	1.29	29	118	160
-0.423	-0.561	1.29	29	118	160
-0.423	-0.567	1.29	29	118	160
-0.423	-0.573	1.29	29	118	160
-0.423	-0.579	1.29	29	118	158
-0.423	-0.585	1.29	29	118	158
-0.423	-0.591	1.29	29	118	158
-0.423	-0.597	1.29	29	118	158
-0.423	-0.603	1.29	29	118	158
-0.423	-0.609	1.29	28	117	157
-0.423	-0.615	1.29	28	117	157
-0.423	-0.621	1.29	28	117	157
-0.426	-0.63	1.25	29	117	157
-0.426	-0.636	1.25	28	116	156
-0.426	-0.642	1.25	28	116	154
-0.426	-0.648	1.25	28	116	154
-0.426	-0.654	1.25	29	117	155
-0.426	-0.66	1.25	29	117	155
-0.426	-0.666	1.25	28	118	155
-0.426	-0.672	1.25	28	118	155
-0.426	-0.678	1.25	27	117	154
-0.426	-0.684	1.25	27	117	154
-0.426	-0.69	1.25	27	117	154
-0.429	-0.7	1.21	27	117	154
-0.429	-0.706	1.21	27	115	151
-0.429	-0.712	1.21	27	115	151
-0.429	-0.718	1.21	27	115	151
-0.429	-0.724	1.21	27	115	151
-0.429	-0.731	1.21	27	116	150
-0.429	-0.737	1.21	27	116	150
-0.429	-0.743	1.21	27	116	150
-0.429	-0.749	1.21	27	116	150
-0.429	-0.755	1.21	26	115	149
-0.431	-0.765	1.17	26	115	149
-0.431	-0.771	1.17	26	115	149
-0.431	-0.777	1.17	26	115	149
-0.431	-0.783	1.17	26	115	149
-0.431	-0.789	1.17	26	115	149
-0.431	-0.796	1.17	25	114	146
-0.431	-0.802	1.17	25	114	146
-0.431	-0.808	1.17	27	114	144
-0.431	-0.814	1.17	27	114	144
-0.434	-0.825	1.13	27	113	146
-0.434	-0.831	1.13	26	112	145
-0.434	-0.837	1.13	26	113	143
-0.434	-0.843	1.13	26	113	143
-0.434	-0.849	1.13	26	113	143
-0.434	-0.861	1.13	26	110	144
-0.436	-0.885	1.09	25	110	141
-0.434	0.996	1.02	26	113	130
-0.432	0.947	1.06	27	115	135
-0.432	0.94	1.06	25	116	137
-0.432	0.928	1.06	25	116	135
-0.429	0.916	1.1	26	117	136
-0.429	0.91	1.1	27	118	137
-0.429	0.904	1.1	28	119	138
-0.429	0.898	1.1	27	120	137
-0.429	0.892	1.1	28	121	138
-0.429	0.886	1.1	28	121	138
-0.429	0.88	1.1	29	122	139
-0.427	0.868	1.14	27	123	137
-0.427	0.862	1.14	28	124	138
-0.427	0.856	1.14	30	126	138
-0.427	0.85	1.14	30	127	136
-0.427	0.844	1.14	31	128	137
-0.427	0.838	1.14	32	130	139
-0.427	0.832	1.14	31	130	136
-0.427	0.826	1.14	32	131	137
-0.424	0.815	1.19	34	131	137
-0.424	0.809	1.19	34	133	138
-0.424	0.803	1.19	34	134	136
-0.424	0.797	1.19	32	134	136
-0.424	0.79	1.19	34	136	138
-0.424	0.784	1.19	33	137	138
-0.424	0.778	1.19	34	137	136
-0.424	0.772	1.19	35	138	135
-0.424	0.766	1.19	35	140	136
-0.422	0.756	1.23	35	140	136
-0.422	0.75	1.23	35	140	135
-0.422	0.744	1.23	36	141	136
-0.422	0.738	1.23	35	142	136
-0.422	0.732	1.23	36	143	135
-0.422	0.726	1.23	37	144	136
-0.422	0.72	1.23	37	144	136
-0.422	0.714	1.23	37	144	136
-0.422	0.708	1.23	38	145	137
-0.422	0.702	1.23	38	145	135
-0.419	0.691	1.27	39	146	136
-0.419	0.685	1.27	37	147	136
-0.419	0.679	1.27	37	147	136
-0.419	0.674	1.27	37	147	134
-0.419	0.668	1.27	38	148	135
-0.419	0.662	1.27	38	148	135
-0.419	0.656	1.27	39	149	136
-0.419	0.65	1.27	39	149	136
-0.419	0.644	1.27	39	149	136
-0.419	0.638	1.27	39	149	136
-0.419	0.632	1.27	39	149	136
-0.419	0.626	1.27	40	150	137
-0.417	0.616	1.31	40	150	137
-0.417	0.61	1.31	40	152	136
-0.417	0.604	1.31	40	152	136
-0.417	0.598	1.31	40	153	135
-0.417	0.592	1.31	40	153	135
-0.417	0.586	1.31	40	152	136
-0.417	0.58	1.31	40	152	136
-0.417	0.574	1.31	41	153	137
-0.417	0.569	1.31	41	153	137
-0.417	0.563	1.31	41	153	137
-0.417	0.557	1.31	41	153	137
-0.417	0.551	1.31	40	155	138
-0.417	0.545	1.31	40	155	138
-0.417	0.539	1.31	41	157	138
-0.417	0.533	1.31	41	157	138
-0.414	0.524	1.35	42	157	140
-0.414	0.518	1.35	41	156	139
-0.414	0.512	1.35	41	156	139
-0.414	0.506	1.35	41	156	139
-0.414	0.5	1.35	42	158	139
-0.414	0.494	1.35	42	158	139
-0.414	0.488	1.35	42	157	140
-0.414	0.483	1.35	42	157	140
-0.414	0.477	1.35	42	157	140
-0.414	0.471	1.35	42	157	140
-0.414	0.465	1.35	42	157	140
-0.414	0.459	1.35	42	157	140
-0.414	0.453	1.35	41	158	140
-0.414	0.447	1.35	41	158	140
-0.414	0.441	1.35	41	158	142
-0.414	0.435	1.35	41	158	142
-0.414	0.429	1.35	41	158	142
-0.414	0.423	1.35	41	158	142
-0.412	0.415	1.39	42	159	143
-0.412	0.409	1.39	42	159	143
-0.412	0.403	1.39	42	159	143
-0.412	0.397	1.39	42	159	143
-0.412	0.392	1.39	42	158	145
-0.412	0.386	1.39	42	158	145
-0.412	0.38	1.39	42	158	145
-0.412	0.374	1.39	42	158	145
-0.412	0.368	1.39	42	158	145
-0.412	0.362	1.39	42	158	145
-0.412	0.356	1.39	42	158	145
-0.412	0.351	1.39	42	158	145
-0.412	0.345	1.39	42	158	147
-0.412	0.339	1.39	42	158	147
-0.412	0.333	1.39	41	157	146
-0.412	0.327	1.39	41	157	146
-0.412	0.321	1.39	41	157	146
-0.412	0.315	1.39	41	157	146
-0.412	0.309	1.39	41	157	148
-0.412	0.304	1.39	41	157	148
-0.412	0.298	1.39	41	157	148
-0.412	0.292	1.39	41	157	148
-0.412	0.286	1.39	41	157	148
-0.412	0.28	1.39	41	157	148
-0.412	0.274	1.39	41	156	149
-0.412	0.268	1.39	41	156	149
-0.409	0.261	1.42	41	156	149
-0.409	0.255	1.42	41	156	149
-0.409	0.249	1.42	41	156	149
-0.409	0.243	1.42	42	157	150
-0.409	0.238	1.42	41	156	151
-0.409	0.232	1.42	40	155	150
-0.409	0.226	1.42	40	155	150
-0.409	0.22	1.42	40	155	150
-0.409	0.214	1.42	40	155	152
-0.409	0.208	1.42	40	155	152
-0.409	0.203	1.42	40	155	152
-0.409	0.197	1.42	40	155	152
-0.409	0.191	1.42	40	154	154
-0.409	0.185	1.42	40	154	154
-0.409	0.179	1.42	40	154	154
-0.409	0.173	1.42	40	154	154
-0.409	0.168	1.42	40	154	154
-0.409	0.162	1.42	40	154	154
-0.409	0.156	1.42	40	154	154
-0.409	0.15	1.42	40	154	154
-0.409	0.144	1.42	39	153	154
-0.409	0.138	1.42	39	153	154
-0.409	0.133	1.42	39	153	154
-0.409	0.127	1.42	39	153	154
-0.409	0.121	1.42	39	153	154
-0.409	0.115	1.42	39	153	154
-0.409	0.109	1.42	39	152	156
-0.409	0.103	1.42	39	152	156
-0.409	0.0976	1.42	39	152	156
-0.409	0.0917	1.42	39	152	156
-0.409	0.0859	1.42	39	152	156
-0.409	0.0801	1.42	39	152	156
-0.409	0.0742	1.42	39	150	157
-0.409	0.0684	1.42	39	150	157
-0.409	0.0626	1.42	38	151	157
-0.409	0.0567	1.42	38	151	157
-0.409	0.0509	1.42	38	151	157
-0.409	0.0451	1.42	37	150	156
-0.409	0.0392	1.42	37	150	158
-0.409	0.0334	1.42	37	150	158
-0.409	0.0275	1.42	37	150	158
-0.409	0.0217	1.42	37	150	158
-0.409	0.0159	1.42	38	149	160
-0.409	0.01	1.42	38	149	160
-0.409	0.0042	1.42	37	149	160
-0.409	-0.00163	1.42	37	149	160
-0.409	-0.00747	1.42	38	148	161
-0.409	-0.0133	1.42	37	147	160
-0.409	-0.0191	1.42	37	147	160
-0.409	-0.025	1.42	37	147	160
-0.409	-0.0308	1.42	37	147	160
-0.409	-0.0366	1.42	37	147	160
-0.409	-0.0425	1.42	36	148	162
-0.409	-0.0483	1.42	35	147	161
-0.409	-0.0541	1.42	36	146	161
-0.409	-0.06	1.42	36	146	161
-0.409	-0.0658	1.42	36	146	161
-0.409	-0.0717	1.42	35	145	160
-0.409	-0.0775	1.42	35	145	162
-0.409	-0.0833	1.42	35	145	162
-0.409	-0.0892	1.42	35	145	162
-0.409	-0.095	1.42	34	144	161
-0.409	-0.101	1.42	34	144	161
-0.409	-0.107	1.42	34	144	161
-0.409	-0.113	1.42	34	143	163
-0.409	-0.118	1.42	34	143	163
-0.409	-0.124	1.42	34	143	164
-0.409	-0.13	1.42	33	142	163
-0.409	-0.136	1.42	33	142	163
-0.409	-0.142	1.42	33	142	163
-0.409	-0.148	1.42	35	141	165
-0.409	-0.153	1.42	35	141	165
-0.409	-0.159	1.42	35	141	165
-0.409	-0.165	1.42	34	140	164
-0.409	-0.171	1.42	33	139	163
-0.409	-0.177	1.42	33	139	163
-0.409	-0.183	1.42	34	140	166
-0.409	-0.188	1.42	33	139	165
-0.409	-0.194	1.42	33	139	165
-0.409	-0.2	1.42	33	139	165
-0.409	-0.206	1.42	32	137	166
-0.409	-0.212	1.42	32	137	166
-0.409	-0.218	1.42	33	137	166
-0.409	-0.223	1.42	32	136	165
-0.409	-0.229	1.42	32	135	166
-0.409	-0.235	1.42	32	135	166
-0.412	-0.242	1.39	30	135	165
-0.412	-0.248	1.39	30	135	165
-0.412	-0.254	1.39	31	134	165
-0.412	-0.26	1.39	31	134	165
-0.412	-0.266	1.39	31	134	167
-0.412	-0.272	1.39	30	133	166
-0.412	-0.278	1.39	33	133	167
-0.412	-0.283	1.39	31	131	165
-0.412	-0.289	1.39	31	131	165
-0.412	-0.295	1.39	31	131	165
-0.412	-0.301	1.39	31	131	167
-0.412	-0.307	1.39	30	130	166
-0.412	-0.313	1.39	30	130	166
-0.412	-0.319	1.39	30	130	166
-0.412	-0.325	1.39	31	129	166
-0.412	-0.33	1.39	30	128	165
-0.412	-0.336	1.39	30	128	165
-0.412	-0.342	1.39	29	127	164
-0.412	-0.348	1.39	29	127	164
-0.412	-0.354	1.39	29	127	164
-0.412	-0.36	1.39	30	126	166
-0.412	-0.366	1.39	28	124	164
-0.412	-0.371	1.39	29	125	165
-0.412	-0.377	1.39	28	124	164
-0.412	-0.383	1.39	30	123	164
-0.412	-0.389	1.39	30	123	164
-0.412	-0.395	1.39	31	123	164
-0.412	-0.401	1.39	30	122	163
-0.414	-0.409	1.35	30	122	163
-0.414	-0.415	1.35	30	122	163
-0.414	-0.421	1.35	32	121	165
-0.414	-0.427	1.35	31	120	164
-0.414	-0.433	1.35	31	120	164
-0.414	-0.439	1.35	30	119	163
-0.414	-0.445	1.35	30	119	163
-0.414	-0.45	1.35	30	119	163
-0.414	-0.456	1.35	29	118	162
-0.414	-0.462	1.35	29	118	162
-0.414	-0.468	1.35	29	118	162
-0.414	-0.474	1.35	29	118	162
-0.414	-0.48	1.35	29	118	160
-0.414	-0.486	1.35	30	119	161
-0.414	-0.492	1.35	30	119	161
-0.414	-0.498	1.35	30	119	159
-0.414	-0.504	1.35	30	119	159
-0.414	-0.51	1.35	30	119	159
-0.417	-0.518	1.31	30	119	161
-0.417	-0.524	1.31	30	119	161
-0.417	-0.53	1.31	30	119	161
-0.417	-0.536	1.31	30	119	161
-0.417	-0.542	1.31	30	119	159
-0.417	-0.548	1.31	30	119	159
-0.417	-0.554	1.31	30	119	159
-0.417	-0.56	1.31	30	119	159
-0.417	-0.566	1.31	27	119	158
-0.417	-0.572	1.31	27	119	158
-0.417	-0.578	1.31	29	118	158
-0.417	-0.584	1.31	29	118	158
-0.417	-0.59	1.31	27	119	156
-0.417	-0.596	1.31	27	119	156
-0.419	-0.605	1.27	29	118	158
-0.419	-0.611	1.27	29	118	158
-0.419	-0.617	1.27	28	118	155
-0.419	-0.623	1.27	28	118	155
-0.419	-0.629	1.27	28	117	157
-0.419	-0.635	1.27	28	117	157
-0.419	-0.641	1.27	28	118	155
-0.419	-0.647	1.27	28	118	155
-0.419	-0.653	1.27	28	118	155
-0.419	-0.659	1.27	29	119	156
-0.419	-0.665	1.27	27	117	154
-0.419	-0.671	1.27	27	117	154
-0.422	-0.681	1.23	27	117	152
-0.422	-0.687	1.23	27	117	152
-0.422	-0.693	1.23	27	117	152
-0.422	-0.699	1.23	27	117	152
-0.422	-0.705	1.23	27	117	152
-0.422	-0.711	1.23	27	117	152
-0.422	-0.717	1.23	27	117	151
-0.422	-0.723	1.23	27	117	151
-0.422	-0.729	1.23	26	116	150
-0.422	-0.735	1.23	26	116	150
-0.422	-0.741	1.23	26	116	150
-0.424	-0.752	1.18	26	116	150
-0.424	-0.758	1.18	26	117	148
-0.424	-0.764	1.18	26	117	148
-0.424	-0.77	1.18	26	116	150
-0.424	-0.776	1.18	26	116	150
-0.424	-0.782	1.18	26	115	149
-0.424	-0.788	1.18	26	115	149
-0.424	-0.794	1.18	25	114	146
-0.424	-0.8	1.18	25	114	146
-0.427	-0.811	1.14	25	114	144
-0.427	-0.817	1.14	25	114	144
-0.427	-0.823	1.14	25	114	146
-0.427	-0.829	1.14	24	113	145
-0.427	-0.835	1.14	27	113	146
-0.427	-0.841	1.14	26	112	145
-0.427	-0.848	1.14	26	113	143
-0.427	-0.854	1.14	26	113	143
-0.429	-0.902	1.1	24	109	140
-0.43	1.02	0.99	26	114	128
-0.427	0.975	1.03	25	114	132
-0.427	0.969	1.03	26	114	134
-0.425	0.957	1.07	26	114	134
-0.425	0.951	1.07	27	115	135
-0.425	0.945	1.07	27	115	135
-0.425	0.939	1.07	25	116	137
-0.425	0.932	1.07	25	116	137
-0.425	0.926	1.07	25	116	135
-0.425	0.92	1.07	27	118	137
-0.422	0.909	1.12	27	118	137
-0.422	0.902	1.12	28	119	138
-0.422	0.896	1.12	27	120	137
-0.422	0.89	1.12	28	121	138
-0.422	0.884	1.12	29	122	139
-0.422	0.878	1.12	30	123	140
-0.422	0.872	1.12	28	124	138
-0.422	0.866	1.12	29	125	139
-0.42	0.854	1.16	30	126	138
-0.42	0.848	1.16	30	127	136
-0.42	0.842	1.16	30	128	137
-0.42	0.836	1.16	31	129	138
-0.42	0.83	1.16	31	130	136
-0.42	0.824	1.16	32	131	137
-0.42	0.818	1.16	34	131	137
-0.42	0.812	1.16	34	133	138
-0.417	0.801	1.2	32	134	136
-0.417	0.795	1.2	33	135	137
-0.417	0.789	1.2	33	137	138
-0.417	0.783	1.2	33	137	138
-0.417	0.777	1.2	34	137	136
-0.417	0.771	1.2	35	138	135
-0.417	0.765	1.2	35	140	136
-0.417	0.759	1.2	35	140	136
-0.417	0.753	1.2	35	140	135
-0.415	0.742	1.24	36	141	136
-0.415	0.736	1.24	35	142	134
-0.415	0.73	1.24	36	143	135
-0.415	0.724	1.24	37	144	136
-0.415	0.718	1.24	37	144	136
-0.415	0.712	1.24	37	144	136
-0.415	0.706	1.24	38	145	137
-0.415	0.7	1.24	38	145	135
-0.415	0.694	1.24	39	146	136
-0.415	0.688	1.24	37	147	136
-0.415	0.682	1.24	37	147	136
-0.412	0.672	1.28	37	147	134
-0.412	0.666	1.28	38	148	135
-0.412	0.66	1.28	38	148	135
-0.412	0.654	1.28	39	149	136
-0.412	0.648	1.28	39	149	136
-0.412	0.642	1.28	39	149	136
-0.412	0.636	1.28	39	149	136
-0.412	0.631	1.28	40	150	137
-0.412	0.625	1.28	40	150	137
-0.412	0.619	1.28	40	150	137
-0.412	0.613	1.28	40	152	136
-0.412	0.607	1.28	40	152	136
-0.412	0.601	1.28	40	152	136
-0.41	0.591	1.32	40	152	136
-0.41	0.585	1.32	40	152	136
-0.41	0.579	1.32	40	152	136
-0.41	0.573	1.32	41	153	137
-0.41	0.567	1.32	41	153	137
-0.41	0.562	1.32	42	154	138
-0.41	0.556	1.32	42	154	138
-0.41	0.55	1.32	40	155	138
-0.41	0.544	1.32	40	155	138
-0.41	0.538	1.32	41	157	138
-0.41	0.532	1.32	41	157	138
-0.41	0.526	1.32	41	156	139
-0.41	0.52	1.32	41	156	139
-0.41	0.514	1.32	41	156	139
-0.41	0.508	1.32	41	156	139
-0.408	0.499	1.36	42	158	139
-0.408	0.493	1.36	42	158	139
-0.408	0.488	1.36	42	157	140
-0.408	0.482	1.36	42	157	140
-0.408	0.476	1.36	42	157	140
-0.408	0.47	1.36	42	157	140
-0.408	0.464	1.36	42	157	140
-0.408	0.458	1.36	42	157	140
-0.408	0.452	1.36	41	158	140
-0.408	0.446	1.36	41	158	140
-0.408	0.44	1.36	41	158	142
-0.408	0.434	1.36	41	158	142
-0.408	0.429	1.36	41	158	142
-0.408	0.423	1.36	41	158	142
-0.408	0.417	1.36	42	159	143
-0.408	0.411	1.36	42	159	143
-0.408	0.405	1.36	42	159	143
-0.408	0.399	1.36	42	159	143
-0.408	0.393	1.36	42	158	145
-0.408	0.387	1.36	42	158	145
-0.405	0.379	1.4	42	158	145
-0.405	0.373	1.4	42	158	145
-0.405	0.367	1.4	42	158	145
-0.405	0.362	1.4	42	158	145
-0.405	0.356	1.4	42	158	145
-0.405	0.35	1.4	42	158	145
-0.405	0.344	1.4	42	158	147
-0.405	0.338	1.4	42	158	147
-0.405	0.332	1.4	41	157	146
-0.405	0.326	1.4	41	157	146
-0.405	0.321	1.4	41	157	146
-0.405	0.315	1.4	41	157	146
-0.405	0.309	1.4	41	157	148
-0.405	0.303	1.4	41	157	148
-0.405	0.297	1.4	41	157	148
-0.405	0.291	1.4	41	157	148
-0.405	0.285	1.4	41	157	148
-0.405	0.28	1.4	41	157	148
-0.405	0.274	1.4	41	156	149
-0.405	0.268	1.4	41	156	149
-0.405	0.262	1.4	41	156	149
-0.405	0.256	1.4	41	156	149
-0.405	0.25	1.4	41	156	149
-0.405	0.244	1.4	41	156	149
-0.405	0.239	1.4	40	155	150
-0.405	0.233	1.4	40	155	150
-0.405	0.227	1.4	40	155	150
-0.405	0.221	1.4	40	155	150
-0.405	0.215	1.4	40	155	152
-0.405	0.209	1.4	40	155	152
-0.405	0.203	1.4	40	155	152
-0.405	0.198	1.4	40	155	152
-0.403	0.191	1.44	40	154	154
-0.403	0.185	1.44	40	154	154
-0.403	0.179	1.44	40	154	154
-0.403	0.173	1.44	40	154	154
-0.403	0.167	1.44	40	154	154
-0.403	0.161	1.44	40	154	154
-0.403	0.156	1.44	39	153	153
-0.403	0.15	1.44	39	153	153
-0.403	0.144	1.44	39	153	154
-0.403	0.138	1.44	39	153	154
-0.403	0.132	1.44	39	153	154
-0.403	0.127	1.44	39	153	154
-0.403	0.121	1.44	39	153	154
-0.403	0.115	1.44	39	153	154
-0.403	0.109	1.44	39	152	156
-0.403	0.103	1.44	39	152	156
-0.403	0.0974	1.44	39	152	156
-0.403	0.0916	1.44	39	152	156
-0.403	0.0857	1.44	39	152	156
-0.403	0.0799	1.44	38	151	155
-0.403	0.0741	1.44	39	150	157
-0.403	0.0683	1.44	39	150	157
-0.403	0.0624	1.44	38	151	157
-0.403	0.0566	1.44	38	151	157
-0.403	0.0508	1.44	37	150	156
-0.403	0.045	1.44	37	150	156
-0.403	0.0391	1.44	37	150	158
-0.403	0.0333	1.44	37	150	158
-0.403	0.0275	1.44	37	150	158
-0.403	0.0217	1.44	37	150	158
-0.403	0.0158	1.44	38	149	160
-0.403	0.01	1.44	38	149	160
-0.403	0.0042	1.44	37	149	160
-0.403	-0.00163	1.44	37	149	160
-0.403	-0.00745	1.44	37	147	160
-0.403	-0.0133	1.44	37	147	160
-0.403	-0.0191	1.44	37	147	160
-0.403	-0.0249	1.44	37	147	160
-0.403	-0.0308	1.44	37	147	160
-0.403	-0.0366	1.44	37	147	160
-0.403	-0.0424	1.44	35	147	161
-0.403	-0.0482	1.44	35	147	161
-0.403	-0.054	1.44	36	146	161
-0.403	-0.0599	1.44	36	146	161
-0.403	-0.0657	1.44	35	145	160
-0.403	-0.0715	1.44	35	145	160
-0.403	-0.0773	1.44	35	145	162
-0.403	-0.0832	1.44	36	146	163
-0.403	-0.089	1.44	34	144	161
-0.403	-0.0948	1.44	34	144	161
-0.403	-0.101	1.44	34	144	161
-0.403	-0.106	1.44	34	144	161
-0.403	-0.112	1.44	34	143	163
-0.403	-0.118	1.44	34	143	163
-0.403	-0.124	1.44	33	142	163
-0.403	-0.13	1.44	33	142	163
-0.403	-0.136	1.44	33	142	163
-0.403	-0.141	1.44	34	143	164
-0.403	-0.147	1.44	35	141	165
-0.403	-0.153	1.44	35	141	165
-0.403	-0.159	1.44	34	140	166
-0.403	-0.165	1.44	34	140	166
-0.403	-0.171	1.44	34	140	164
-0.405	-0.177	1.4	33	139	163
-0.405	-0.183	1.4	33	139	165
-0.405	-0.189	1.4	33	139	165
-0.405	-0.195	1.4	33	139	165
-0.405	-0.201	1.4	32	138	164
-0.405	-0.207	1.4	32	137	166
-0.405	-0.213	1.4	32	137	166
-0.405	-0.218	1.4	32	136	165
-0.405	-0.224	1.4	32	136	165
-0.405	-0.23	1.4	32	135	166
-0.405	-0.236	1.4	31	134	165
-0.405	-0.242	1.4	30	135	165
-0.405	-0.248	1.4	30	135	165
-0.405	-0.254	1.4	31	134	165
-0.405	-0.259	1.4	30	133	164
-0.405	-0.265	1.4	30	133	166
-0.405	-0.271	1.4	30	133	166
-0.405	-0.277	1.4	32	132	166
-0.405	-0.283	1.4	31	131	165
-0.405	-0.289	1.4	31	131	165
-0.405	-0.295	1.4	31	131	165
-0.405	-0.3	1.4	30	130	166
-0.405	-0.306	1.4	30	130	166
-0.405	-0.312	1.4	30	130	166
-0.405	-0.318	1.4	30	130	166
-0.405	-0.324	1.4	31	129	166
-0.405	-0.33	1.4	30	128	165
-0.405	-0.336	1.4	30	128	165
-0.405	-0.341	1.4	29	127	164
-0.405	-0.347	1.4	29	127	164
-0.405	-0.353	1.4	29	127	164
-0.405	-0.359	1.4	30	126	166
-0.405	-0.365	1.4	29	125	165
-0.408	-0.373	1.36	29	125	165
-0.408	-0.379	1.36	28	124	164
-0.408	-0.385	1.36	30	123	164
-0.408	-0.391	1.36	30	123	164
-0.408	-0.397	1.36	30	122	163
-0.408	-0.402	1.36	30	122	163
-0.408	-0.408	1.36	30	122	163
-0.408	-0.414	1.36	30	122	163
-0.408	-0.42	1.36	31	120	164
-0.408	-0.426	1.36	31	120	164
-0.408	-0.432	1.36	31	120	164
-0.408	-0.438	1.36	30	119	163
-0.408	-0.444	1.36	30	119	163
-0.408	-0.45	1.36	30	119	163
-0.408	-0.456	1.36	30	119	163
-0.408	-0.461	1.36	30	119	163
-0.408	-0.467	1.36	30	119	163
-0.408	-0.473	1.36	30	119	163
-0.408	-0.479	1.36	30	119	161
-0.408	-0.485	1.36	30	119	161
-0.41	-0.494	1.32	30	119	159
-0.41	-0.5	1.32	30	119	159
-0.41	-0.506	1.32	30	119	159
-0.41	-0.512	1.32	30	119	159
-0.41	-0.518	1.32	30	119	161
-0.41	-0.523	1.32	30	119	161
-0.41	-0.529	1.32	30	119	161
-0.41	-0.535	1.32	30	119	161
-0.41	-0.541	1.32	30	119	159
-0.41	-0.547	1.32	30	119	159
-0.41	-0.553	1.32	30	119	159
-0.41	-0.559	1.32	30	119	159
-0.41	-0.565	1.32	28	120	159
-0.41	-0.571	1.32	27	119	158
-0.41	-0.577	1.32	29	118	158
-0.412	-0.586	1.28	29	118	158
-0.412	-0.592	1.28	27	119	156
-0.412	-0.598	1.28	27	119	156
-0.412	-0.604	1.28	29	118	158
-0.412	-0.61	1.28	29	118	158
-0.412	-0.616	1.28	28	118	155
-0.412	-0.622	1.28	28	118	155
-0.412	-0.628	1.28	28	117	157
-0.412	-0.634	1.28	28	117	157
-0.412	-0.64	1.28	28	118	155
-0.412	-0.646	1.28	28	118	155
-0.412	-0.652	1.28	28	118	155
-0.412	-0.658	1.28	28	118	155
-0.415	-0.668	1.24	28	118	155
-0.415	-0.674	1.24	28	118	155
-0.415	-0.68	1.24	27	117	152
-0.415	-0.686	1.24	27	117	152
-0.415	-0.692	1.24	27	117	152
-0.415	-0.698	1.24	27	117	152
-0.415	-0.704	1.24	27	117	152
-0.415	-0.71	1.24	27	117	152
-0.415	-0.716	1.24	27	117	151
-0.415	-0.722	1.24	27	117	151
-0.417	-0.732	1.2	27	117	151
-0.417	-0.738	1.2	27	117	151
-0.417	-0.744	1.2	26	116	150
-0.417	-0.75	1.2	26	116	150
-0.417	-0.756	1.2	26	117	148
-0.417	-0.762	1.2	26	117	148
-0.417	-0.768	1.2	26	116	150
-0.417	-0.774	1.2	26	116	150
-0.417	-0.78	1.2	26	115	149
-0.417	-0.787	1.2	26	115	149
-0.42	-0.797	1.16	26	115	147
-0.42	-0.803	1.16	26	115	147
-0.42	-0.809	1.16	25	114	144
-0.42	-0.816	1.16	25	114	144
-0.42	-0.822	1.16	25	114	146
-0.42	-0.828	1.16	25	114	146
-0.42	-0.834	1.16	26	112	145
-0.42	-0.84	1.16	26	112	145
-0.422	-0.851	1.12	26	113	143
-0.422	-0.857	1.12	25	112	142
-0.422	-0.863	1.12	26	112	145
-0.425	-0.905	1.07	25	110	141
-0.423	1.01	1	25	112	129
-0.423	0.998	1	26	113	132
-0.42	0.973	1.05	25	114	132
-0.42	0.961	1.05	26	114	134
-0.42	0.955	1.05	27	115	135
-0.418	0.943	1.09	27	115	135
-0.418	0.937	1.09	27	115	137
-0.418	0.931	1.09	27	115	137
-0.418	0.918	1.09	26	117	138
-0.418	0.912	1.09	26	119	137
-0.418	0.906	1.09	27	120	138
-0.415	0.895	1.13	27	120	138
-0.415	0.889	1.13	28	121	139
-0.415	0.882	1.13	29	122	139
-0.415	0.876	1.13	30	123	140
-0.415	0.87	1.13	28	124	138
-0.415	0.864	1.13	29	125	139
-0.415	0.858	1.13	30	126	138
-0.415	0.852	1.13	30	126	138
-0.413	0.841	1.17	30	128	137
-0.413	0.835	1.17	31	129	138
-0.413	0.829	1.17	31	130	136
-0.413	0.823	1.17	32	131	137
-0.413	0.817	1.17	33	132	137
-0.413	0.81	1.17	34	133	138
-0.413	0.804	1.17	32	134	136
-0.413	0.798	1.17	33	135	137
-0.41	0.788	1.21	34	136	138
-0.41	0.781	1.21	34	136	138
-0.41	0.775	1.21	34	137	136
-0.41	0.769	1.21	35	138	137
-0.41	0.763	1.21	35	139	138
-0.41	0.757	1.21	35	139	138
-0.41	0.751	1.21	36	139	136
-0.41	0.745	1.21	36	141	137
-0.41	0.739	1.21	36	143	137
-0.41	0.733	1.21	37	144	138
-0.408	0.723	1.25	38	143	136
-0.408	0.717	1.25	38	143	136
-0.408	0.711	1.25	37	144	136
-0.408	0.705	1.25	38	145	137
-0.408	0.699	1.25	38	145	137
-0.408	0.693	1.25	39	146	138
-0.408	0.687	1.25	39	146	136
-0.408	0.681	1.25	39	146	136
-0.408	0.675	1.25	37	147	136
-0.408	0.669	1.25	38	148	137
-0.408	0.663	1.25	38	148	135
-0.406	0.653	1.29	39	149	136
-0.406	0.647	1.29	39	149	136
-0.406	0.641	1.29	39	149	136
-0.406	0.635	1.29	39	149	136
-0.406	0.629	1.29	40	150	137
-0.406	0.623	1.29	40	150	137
-0.406	0.617	1.29	41	151	138
-0.406	0.611	1.29	40	152	136
-0.406	0.606	1.29	40	152	136
-0.406	0.6	1.29	40	152	136
-0.406	0.594	1.29	40	152	138
-0.406	0.588	1.29	40	152	138
-0.406	0.582	1.29	41	153	139
-0.406	0.576	1.29	41	153	137
-0.403	0.566	1.33	41	153	137
-0.403	0.561	1.33	41	153	137
-0.403	0.555	1.33	42	154	138
-0.403	0.549	1.33	40	155	138
-0.403	0.543	1.33	40	155	138
-0.403	0.537	1.33	40	155	138
-0.403	0.531	1.33	40	155	138
-0.403	0.525	1.33	41	156	139
-0.403	0.519	1.33	42	157	140
-0.403	0.513	1.33	41	156	139
-0.403	0.507	1.33	41	156	139
-0.403	0.501	1.33	42	157	140
-0.403	0.495	1.33	42	157	140
-0.403	0.489	1.33	42	157	140
-0.403	0.484	1.33	42	157	140
-0.403	0.478	1.33	42	158	139
-0.401	0.469	1.37	42	158	139
-0.401	0.463	1.37	42	157	140
-0.401	0.457	1.37	42	157	140
-0.401	0.451	1.37	42	157	142
-0.401	0.445	1.37	42	157	142
-0.401	0.44	1.37	42	157	144
-0.401	0.434	1.37	42	157	142
-0.401	0.428	1.37	41	158	142
-0.401	0.422	1.37	41	158	140
-0.401	0.416	1.37	42	159	143
-0.401	0.41	1.37	42	159	143
-0.401	0.404	1.37	42	158	145
-0.401	0.398	1.37	42	158	145
-0.401	0.392	1.37	42	158	145
-0.401	0.387	1.37	42	158	145
-0.401	0.381	1.37	42	158	145
-0.401	0.375	1.37	42	158	145
-0.401	0.369	1.37	42	158	145
-0.401	0.363	1.37	42	158	145
-0.401	0.357	1.37	42	158	147
-0.401	0.351	1.37	42	158	147
-0.401	0.345	1.37	42	158	147
-0.398	0.338	1.41	41	157	146
-0.398	0.332	1.41	41	157	148
-0.398	0.326	1.41	41	157	148
-0.398	0.32	1.41	41	157	148
-0.398	0.314	1.41	41	157	148
-0.398	0.308	1.41	41	157	148
-0.398	0.302	1.41	41	157	148
-0.398	0.297	1.41	41	156	149
-0.398	0.291	1.41	41	156	149
-0.398	0.285	1.41	41	156	149
-0.398	0.279	1.41	41	156	149
-0.398	0.273	1.41	41	156	149
-0.398	0.267	1.41	41	156	149
-0.398	0.262	1.41	41	156	149
-0.398	0.256	1.41	41	156	149
-0.398	0.25	1.41	41	156	151
-0.398	0.244	1.41	40	155	150
-0.398	0.238	1.41	40	155	150
-0.398	0.232	1.41	40	155	150
-0.398	0.226	1.41	40	155	152
-0.398	0.221	1.41	40	155	152
-0.398	0.215	1.41	40	155	152
-0.398	0.209	1.41	40	155	152
-0.398	0.203	1.41	40	154	154
-0.398	0.197	1.41	40	154	154
-0.398	0.191	1.41	40	154	154
-0.398	0.185	1.41	40	154	154
-0.398	0.18	1.41	40	154	155
-0.398	0.174	1.41	40	154	155
-0.398	0.168	1.41	39	153	154
-0.398	0.162	1.41	39	153	154
-0.398	0.156	1.41	39	153	154
-0.398	0.15	1.41	39	153	154
-0.398	0.145	1.41	39	152	156
-0.398	0.139	1.41	39	152	156
-0.398	0.133	1.41	39	152	156
-0.398	0.127	1.41	39	152	156
-0.398	0.121	1.41	39	152	156
-0.398	0.115	1.41	39	152	156
-0.398	0.109	1.41	39	152	156
-0.398	0.104	1.41	39	152	156
-0.396	0.0972	1.45	40	151	158
-0.396	0.0914	1.45	39	150	157
-0.398	0.0861	1.41	39	152	158
-0.396	0.0798	1.45	38	151	157
-0.396	0.0739	1.45	38	151	159
-0.396	0.0681	1.45	38	151	159
-0.396	0.0623	1.45	38	151	159
-0.396	0.0565	1.45	37	150	158
-0.396	0.0507	1.45	37	150	158
-0.396	0.0449	1.45	37	150	158
-0.396	0.0391	1.45	38	149	160
-0.396	0.0333	1.45	39	150	161
-0.396	0.0274	1.45	38	149	160
-0.396	0.0216	1.45	38	149	160
-0.396	0.0158	1.45	38	149	160
-0.396	0.01	1.45	38	149	160
-0.396	0.00419	1.45	38	148	161
-0.396	-0.00163	1.45	37	147	160
-0.396	-0.00744	1.45	37	147	160
-0.396	-0.0133	1.45	37	147	160
-0.396	-0.0191	1.45	37	147	162
-0.396	-0.0249	1.45	37	147	162
-0.396	-0.0307	1.45	37	147	162
-0.396	-0.0365	1.45	36	146	161
-0.396	-0.0423	1.45	36	146	159
-0.396	-0.0481	1.45	36	146	161
-0.396	-0.0539	1.45	36	146	161
-0.396	-0.0598	1.45	36	146	163
-0.398	-0.066	1.41	35	145	162
-0.398	-0.0718	1.41	35	145	162
-0.398	-0.0777	1.41	34	144	161
-0.396	-0.083	1.45	34	144	161
-0.398	-0.0894	1.41	37	144	164
-0.399	-0.0952	1.41	37	144	164
-0.399	-0.101	1.41	34	143	163
-0.399	-0.107	1.41	34	143	163
-0.399	-0.113	1.41	34	143	163
-0.399	-0.119	1.41	34	143	163
-0.399	-0.124	1.41	35	141	163
-0.399	-0.13	1.41	35	141	163
-0.399	-0.136	1.41	35	141	165
-0.399	-0.142	1.41	35	141	165
-0.399	-0.148	1.41	35	141	165
-0.399	-0.154	1.41	34	140	164
-0.399	-0.16	1.41	34	140	166
-0.399	-0.165	1.41	34	140	166
-0.399	-0.171	1.41	33	139	165
-0.399	-0.177	1.41	33	139	165
-0.399	-0.183	1.41	33	139	165
-0.399	-0.189	1.41	33	139	165
-0.399	-0.195	1.41	32	137	166
-0.399	-0.2	1.41	32	137	166
-0.399	-0.206	1.41	32	137	166
-0.399	-0.212	1.41	32	137	166
-0.399	-0.218	1.41	32	135	166
-0.399	-0.224	1.41	32	135	166
-0.399	-0.23	1.41	30	135	165
-0.399	-0.236	1.41	30	135	165
-0.399	-0.241	1.41	31	134	165
-0.399	-0.247	1.41	31	134	165
-0.399	-0.253	1.41	31	134	167
-0.399	-0.259	1.41	30	133	166
-0.399	-0.265	1.41	32	132	166
-0.399	-0.271	1.41	31	131	165
-0.399	-0.277	1.41	32	132	168
-0.399	-0.282	1.41	31	131	167
-0.399	-0.288	1.41	31	131	167
-0.399	-0.294	1.41	31	131	167
-0.399	-0.3	1.41	30	130	166
-0.399	-0.306	1.41	30	130	166
-0.399	-0.312	1.41	30	130	166
-0.399	-0.317	1.41	29	129	165
-0.399	-0.323	1.41	30	128	165
-0.399	-0.329	1.41	30	128	165
-0.401	-0.337	1.37	29	127	164
-0.401	-0.343	1.37	29	127	164
-0.401	-0.349	1.37	30	126	166
-0.401	-0.355	1.37	30	126	166
-0.401	-0.361	1.37	29	125	165
-0.401	-0.366	1.37	29	125	165
-0.401	-0.372	1.37	28	124	164
-0.401	-0.378	1.37	28	124	164
-0.401	-0.384	1.37	28	124	164
-0.401	-0.39	1.37	30	123	164
-0.401	-0.396	1.37	31	122	166
-0.401	-0.402	1.37	30	121	165
-0.401	-0.408	1.37	30	121	165
-0.401	-0.413	1.37	30	121	165
-0.401	-0.419	1.37	31	120	164
-0.401	-0.425	1.37	31	120	164
-0.401	-0.431	1.37	31	120	164
-0.401	-0.437	1.37	30	119	163
-0.401	-0.443	1.37	30	119	163
-0.401	-0.449	1.37	30	119	163
-0.401	-0.455	1.37	30	119	163
-0.403	-0.463	1.33	30	119	163
-0.403	-0.469	1.33	30	119	161
-0.403	-0.475	1.33	30	119	161
-0.403	-0.481	1.33	30	119	161
-0.403	-0.487	1.33	30	119	161
-0.403	-0.493	1.33	28	120	161
-0.403	-0.499	1.33	28	120	161
-0.403	-0.505	1.33	28	120	161
-0.403	-0.511	1.33	28	120	161
-0.403	-0.517	1.33	28	120	159
-0.403	-0.522	1.33	28	120	159
-0.403	-0.528	1.33	28	120	159
-0.403	-0.534	1.33	28	120	159
-0.403	-0.54	1.33	28	120	159
-0.403	-0.546	1.33	28	120	159
-0.403	-0.552	1.33	28	120	159
-0.406	-0.561	1.29	28	120	159
-0.406	-0.567	1.29	28	120	159
-0.406	-0.573	1.29	27	119	158
-0.406	-0.579	1.29	28	120	159
-0.406	-0.585	1.29	27	119	158
-0.406	-0.591	1.29	27	119	156
-0.406	-0.597	1.29	27	119	156
-0.406	-0.603	1.29	27	119	158
-0.406	-0.609	1.29	27	119	158
-0.406	-0.615	1.29	27	119	156
-0.406	-0.621	1.29	27	119	156
-0.406	-0.627	1.29	26	118	155
-0.406	-0.633	1.29	26	118	155
-0.406	-0.639	1.29	28	118	155
-0.408	-0.649	1.25	28	118	155
-0.408	-0.655	1.25	28	118	155
-0.408	-0.661	1.25	28	118	155
-0.408	-0.667	1.25	28	118	155
-0.408	-0.673	1.25	28	118	155
-0.408	-0.679	1.25	27	117	152
-0.408	-0.684	1.25	27	117	152
-0.408	-0.69	1.25	27	117	152
-0.408	-0.696	1.25	27	117	152
-0.408	-0.702	1.25	27	117	152
-0.408	-0.708	1.25	27	117	152
-0.411	-0.719	1.21	27	117	151
-0.411	-0.725	1.21	27	117	151
-0.411	-0.731	1.21	27	117	151
-0.411	-0.737	1.21	27	117	151
-0.411	-0.743	1.21	27	117	151
-0.411	-0.749	1.21	27	117	151
-0.411	-0.755	1.21	27	117	151
-0.411	-0.761	1.21	27	117	151
-0.411	-0.767	1.21	26	116	150
-0.411	-0.773	1.21	26	116	150
-0.413	-0.784	1.17	26	117	148
-0.413	-0.79	1.17	26	117	148
-0.413	-0.796	1.17	26	115	147
-0.413	-0.802	1.17	26	115	147
-0.413	-0.808	1.17	26	115	147
-0.413	-0.814	1.17	26	115	147
-0.413	-0.82	1.17	25	114	146
-0.413	-0.826	1.17	26	115	147
-0.416	-0.837	1.13	25	114	146
-0.416	-0.843	1.13	25	114	146
-0.416	-0.849	1.13	24	113	143
-0.416	-0.856	1.13	24	113	143
-0.416	-0.862	1.13	26	113	143
-0.416	-0.868	1.13	26	113	143
-0.416	-0.88	1.13	26	113	143
-0.416	1	1.02	25	112	129
-0.416	0.99	1.02	26	113	132
-0.413	0.965	1.06	27	115	135
-0.413	0.959	1.06	27	115	135
-0.413	0.953	1.06	27	115	135
-0.413	0.947	1.06	27	115	135
-0.413	0.941	1.06	27	115	137
-0.411	0.929	1.1	27	115	137
-0.411	0.923	1.1	25	116	137
-0.411	0.917	1.1	26	117	138
-0.411	0.911	1.1	26	119	137
-0.411	0.905	1.1	27	120	138
-0.411	0.898	1.1	27	120	138
-0.411	0.892	1.1	28	121	138
-0.409	0.881	1.14	29	122	139
-0.409	0.875	1.14	30	123	138
-0.409	0.869	1.14	28	124	138
-0.409	0.863	1.14	29	125	137
-0.409	0.856	1.14	30	126	138
-0.409	0.85	1.14	31	127	139
-0.409	0.844	1.14	31	129	138
-0.409	0.838	1.14	31	129	138
-0.406	0.827	1.18	31	130	136
-0.406	0.821	1.18	32	131	137
-0.406	0.815	1.18	33	132	137
-0.406	0.809	1.18	34	133	138
-0.406	0.803	1.18	32	134	136
-0.406	0.797	1.18	33	135	137
-0.406	0.791	1.18	34	136	138
-0.406	0.785	1.18	34	136	138
-0.406	0.779	1.18	35	138	137
-0.404	0.768	1.22	35	138	137
-0.404	0.762	1.22	35	139	138
-0.404	0.756	1.22	35	139	138
-0.404	0.75	1.22	36	139	136
-0.404	0.744	1.22	36	141	137
-0.404	0.738	1.22	36	143	137
-0.404	0.732	1.22	36	143	137
-0.404	0.726	1.22	38	143	136
-0.404	0.72	1.22	38	143	136
-0.404	0.714	1.22	37	144	136
-0.401	0.704	1.26	38	145	137
-0.401	0.698	1.26	38	145	137
-0.401	0.692	1.26	39	146	138
-0.401	0.686	1.26	39	146	136
-0.401	0.68	1.26	39	146	136
-0.401	0.674	1.26	38	148	137
-0.401	0.668	1.26	38	148	137
-0.401	0.662	1.26	38	148	137
-0.401	0.656	1.26	39	149	136
-0.401	0.65	1.26	39	149	136
-0.401	0.644	1.26	39	149	136
-0.401	0.638	1.26	40	150	137
-0.399	0.628	1.3	40	150	137
-0.399	0.622	1.3	40	150	137
-0.399	0.616	1.3	41	151	138
-0.399	0.61	1.3	40	152	136
-0.399	0.604	1.3	41	153	137
-0.399	0.598	1.3	41	153	139
-0.399	0.593	1.3	40	152	138
-0.399	0.587	1.3	41	153	139
-0.399	0.581	1.3	40	152	138
-0.399	0.575	1.3	42	154	138
-0.399	0.569	1.3	41	153	137
-0.399	0.563	1.3	41	153	137
-0.399	0.557	1.3	41	153	137
-0.399	0.551	1.3	40	155	138
-0.397	0.542	1.34	40	155	138
-0.397	0.536	1.34	40	155	138
-0.397	0.53	1.34	40	155	138
-0.397	0.524	1.34	40	155	138
-0.397	0.518	1.34	41	156	139
-0.397	0.512	1.34	41	156	139
-0.397	0.506	1.34	40	155	138
-0.397	0.5	1.34	41	156	139
-0.397	0.494	1.34	42	157	140
-0.397	0.489	1.34	42	157	140
-0.397	0.483	1.34	42	157	140
-0.397	0.477	1.34	42	158	139
-0.397	0.471	1.34	42	158	139
-0.397	0.465	1.34	42	157	140
-0.397	0.459	1.34	42	157	140
-0.397	0.453	1.34	42	157	142
-0.397	0.447	1.34	42	157	142
-0.397	0.441	1.34	42	157	144
-0.394	0.433	1.38	42	157	142
-0.394	0.427	1.38	42	159	143
-0.394	0.421	1.38	42	159	141
-0.394	0.415	1.38	42	159	143
-0.394	0.409	1.38	42	159	143
-0.394	0.403	1.38	42	158	145
-0.394	0.398	1.38	42	158	145
-0.394	0.392	1.38	42	158	145
-0.394	0.386	1.38	42	158	145
-0.394	0.38	1.38	42	158	145
-0.394	0.374	1.38	42	158	145
-0.394	0.368	1.38	42	158	145
-0.394	0.362	1.38	42	158	145
-0.394	0.357	1.38	42	158	147
-0.394	0.351	1.38	42	158	147
-0.394	0.345	1.38	41	157	146
-0.394	0.339	1.38	41	157	146
-0.394	0.333	1.38	41	157	148
-0.394	0.327	1.38	41	157	148
-0.394	0.321	1.38	41	157	148
-0.394	0.315	1.38	41	157	148
-0.394	0.31	1.38	41	157	148
-0.394	0.304	1.38	41	157	148
-0.392	0.296	1.42	41	156	149
-0.392	0.29	1.42	41	156	149
-0.392	0.284	1.42	41	156	149
-0.392	0.279	1.42	41	156	149
-0.392	0.273	1.42	41	156	149
-0.392	0.267	1.42	41	156	149
-0.392	0.261	1.42	41	156	149
-0.392	0.255	1.42	41	156	149
-0.392	0.249	1.42	40	155	150
-0.392	0.244	1.42	40	155	150
-0.392	0.238	1.42	40	155	150
-0.392	0.232	1.42	40	155	150
-0.392	0.226	1.42	40	155	152
-0.392	0.22	1.42	40	155	152
-0.392	0.214	1.42	40	155	152
-0.392	0.208	1.42	40	155	152
-0.392	0.203	1.42	40	154	154
-0.392	0.197	1.42	40	154	154
-0.392	0.191	1.42	40	154	154
-0.392	0.185	1.42	40	154	154
-0.392	0.179	1.42	39	153	154
-0.392	0.173	1.42	39	153	154
-0.392	0.168	1.42	39	153	154
-0.392	0.162	1.42	39	153	154
-0.392	0.156	1.42	39	153	154
-0.392	0.15	1.42	39	153	154
-0.392	0.144	1.42	39	152	156
-0.392	0.138	1.42	39	152	156
-0.392	0.133	1.42	39	152	156
-0.392	0.127	1.42	39	152	156
-0.392	0.121	1.42	39	152	156
-0.392	0.115	1.42	39	152	156
-0.392	0.109	1.42	39	152	156
-0.392	0.103	1.42	39	152	156
-0.392	0.0976	1.42	39	150	157
-0.392	0.0918	1.42	39	150	157
-0.392	0.0859	1.42	38	151	157
-0.392	0.0801	1.42	39	152	158
-0.392	0.0742	1.42	38	151	159
-0.392	0.0684	1.42	37	150	158
-0.392	0.0626	1.42	37	150	158
-0.392	0.0567	1.42	37	150	158
-0.392	0.0509	1.42	37	150	158
-0.392	0.0451	1.42	37	150	158
-0.392	0.0392	1.42	38	149	160
-0.392	0.0334	1.42	38	149	160
-0.392	0.0276	1.42	38	149	160
-0.392	0.0217	1.42	38	149	160
-0.392	0.0159	1.42	38	149	160
-0.392	0.01	1.42	37	148	159
-0.392	0.00421	1.42	37	147	160
-0.392	-0.00163	1.42	37	147	160
-0.392	-0.00747	1.42	37	147	160
-0.392	-0.0133	1.42	37	147	160
-0.392	-0.0191	1.42	37	147	162
-0.392	-0.025	1.42	36	146	161
-0.392	-0.0308	1.42	36	146	161
-0.392	-0.0367	1.42	36	146	161
-0.392	-0.0425	1.42	36	146	161
-0.392	-0.0483	1.42	36	146	161
-0.392	-0.0542	1.42	35	145	162
-0.392	-0.06	1.42	35	145	162
-0.392	-0.0658	1.42	35	145	162
-0.392	-0.0717	1.42	35	145	162
-0.392	-0.0775	1.42	34	144	161
-0.392	-0.0834	1.42	33	143	160
-0.392	-0.0892	1.42	37	144	164
-0.392	-0.095	1.42	37	144	164
-0.392	-0.101	1.42	34	143	163
-0.392	-0.107	1.42	34	143	163
-0.392	-0.113	1.42	34	143	163
-0.392	-0.118	1.42	33	142	162
-0.392	-0.124	1.42	35	141	163
-0.392	-0.13	1.42	35	141	163
-0.392	-0.136	1.42	35	141	165
-0.392	-0.142	1.42	35	141	165
-0.392	-0.148	1.42	34	140	164
-0.392	-0.153	1.42	34	140	164
-0.392	-0.159	1.42	34	140	166
-0.392	-0.165	1.42	33	139	165
-0.392	-0.171	1.42	33	139	165
-0.392	-0.177	1.42	33	139	165
-0.392	-0.183	1.42	33	139	165
-0.392	-0.188	1.42	32	138	164
-0.392	-0.194	1.42	32	137	166
-0.392	-0.2	1.42	32	137	166
-0.392	-0.206	1.42	32	137	166
-0.392	-0.212	1.42	31	136	165
-0.392	-0.218	1.42	32	135	166
-0.392	-0.223	1.42	32	135	166
-0.392	-0.229	1.42	30	135	165
-0.392	-0.235	1.42	30	135	165
-0.392	-0.241	1.42	31	134	165
-0.392	-0.247	1.42	31	134	165
-0.392	-0.253	1.42	30	133	166
-0.392	-0.258	1.42	30	133	166
-0.392	-0.264	1.42	32	132	166
-0.392	-0.27	1.42	32	132	166
-0.392	-0.276	1.42	32	132	168
-0.394	-0.283	1.38	31	131	167
-0.394	-0.289	1.38	31	131	167
-0.394	-0.295	1.38	30	130	166
-0.394	-0.301	1.38	30	130	166
-0.394	-0.307	1.38	30	130	166
-0.394	-0.313	1.38	30	130	166
-0.394	-0.319	1.38	29	129	165
-0.394	-0.325	1.38	30	128	165
-0.394	-0.33	1.38	30	128	165
-0.394	-0.336	1.38	29	127	164
-0.394	-0.342	1.38	29	127	164
-0.394	-0.348	1.38	30	126	166
-0.394	-0.354	1.38	30	126	166
-0.394	-0.36	1.38	29	125	165
-0.394	-0.366	1.38	29	125	165
-0.394	-0.372	1.38	28	124	164
-0.394	-0.377	1.38	28	124	164
-0.394	-0.383	1.38	28	124	164
-0.394	-0.389	1.38	30	123	164
-0.394	-0.395	1.38	31	122	166
-0.394	-0.401	1.38	30	121	165
-0.394	-0.407	1.38	30	121	165
-0.394	-0.413	1.38	30	121	165
-0.394	-0.419	1.38	32	121	165
-0.394	-0.424	1.38	31	120	164
-0.397	-0.433	1.34	31	120	164
-0.397	-0.439	1.34	31	120	164
-0.397	-0.445	1.34	30	119	163
-0.397	-0.451	1.34	30	119	163
-0.397	-0.457	1.34	31	120	164
-0.397	-0.462	1.34	31	120	164
-0.397	-0.468	1.34	31	120	162
-0.397	-0.474	1.34	31	120	162
-0.397	-0.48	1.34	31	120	162
-0.397	-0.486	1.34	31	120	162
-0.397	-0.492	1.34	28	120	161
-0.397	-0.498	1.34	28	120	161
-0.397	-0.504	1.34	28	120	161
-0.397	-0.51	1.34	28	120	161
-0.397	-0.516	1.34	28	120	159
-0.397	-0.521	1.34	28	120	159
-0.397	-0.527	1.34	28	120	159
-0.399	-0.536	1.3	28	120	159
-0.399	-0.542	1.3	28	120	159
-0.399	-0.548	1.3	28	120	159
-0.399	-0.554	1.3	28	120	159
-0.399	-0.56	1.3	28	120	159
-0.399	-0.566	1.3	28	120	159
-0.399	-0.572	1.3	28	120	159
-0.399	-0.578	1.3	28	120	159
-0.399	-0.584	1.3	28	120	159
-0.399	-0.59	1.3	28	120	157
-0.399	-0.596	1.3	28	120	157
-0.399	-0.602	1.3	28	120	159
-0.399	-0.608	1.3	27	119	158
-0.399	-0.614	1.3	27	119	156
-0.399	-0.62	1.3	27	119	156
-0.401	-0.629	1.26	27	119	156
-0.401	-0.635	1.26	27	119	156
-0.401	-0.641	1.26	29	119	156
-0.401	-0.647	1.26	28	118	155
-0.401	-0.653	1.26	28	118	155
-0.401	-0.659	1.26	28	118	155
-0.401	-0.665	1.26	28	118	155
-0.401	-0.671	1.26	28	118	155
-0.401	-0.677	1.26	28	118	153
-0.401	-0.683	1.26	28	118	153
-0.401	-0.689	1.26	28	118	153
-0.404	-0.699	1.22	28	118	153
-0.404	-0.705	1.22	28	118	153
-0.404	-0.711	1.22	28	118	153
-0.404	-0.717	1.22	28	118	152
-0.404	-0.723	1.22	28	118	152
-0.404	-0.729	1.22	28	118	152
-0.404	-0.735	1.22	27	117	151
-0.404	-0.741	1.22	27	117	151
-0.404	-0.747	1.22	27	117	151
-0.404	-0.754	1.22	27	117	151
-0.406	-0.764	1.18	27	117	151
-0.406	-0.77	1.18	26	116	150
-0.406	-0.776	1.18	26	116	150
-0.406	-0.782	1.18	26	117	148
-0.406	-0.788	1.18	26	117	148
-0.406	-0.794	1.18	27	116	148
-0.406	-0.8	1.18	27	116	148
-0.406	-0.806	1.18	26	115	147
-0.406	-0.813	1.18	26	115	147
-0.409	-0.824	1.14	26	115	147
-0.409	-0.83	1.14	25	114	146
-0.409	-0.836	1.14	26	115	147
-0.409	-0.842	1.14	24	113	145
-0.409	-0.848	1.14	25	114	144
-0.409	-0.854	1.14	24	113	143
-0.409	-0.86	1.14	26	113	143
-0.409	-0.866	1.14	26	113	143
-0.409	-0.872	1.14	26	113	143
-0.414	-0.926	1.06	23	108	139
-0.409	0.994	1.03	26	113	132
-0.409	0.982	1.03	26	115	133
-0.409	0.976	1.03	26	115	133
-0.407	0.958	1.07	27	115	135
-0.407	0.951	1.07	27	115	135
-0.407	0.945	1.07	27	115	135
-0.407	0.939	1.07	25	116	137
-0.407	0.933	1.07	25	116	137
-0.407	0.927	1.07	26	117	136
-0.404	0.915	1.11	27	118	137
-0.404	0.909	1.11	26	119	137
-0.404	0.903	1.11	27	120	138
-0.404	0.897	1.11	28	121	138
-0.404	0.891	1.11	28	121	138
-0.404	0.884	1.11	29	122	139
-0.404	0.878	1.11	30	123	138
-0.402	0.867	1.15	29	125	139
-0.402	0.861	1.15	30	126	138
-0.402	0.855	1.15	30	126	138
-0.402	0.849	1.15	31	128	137
-0.402	0.843	1.15	32	130	139
-0.402	0.837	1.15	31	129	138
-0.402	0.831	1.15	31	130	136
-0.402	0.824	1.15	32	131	137
-0.399	0.813	1.2	35	132	138
-0.399	0.807	1.2	34	133	138
-0.399	0.801	1.2	32	134	136
-0.399	0.795	1.2	33	135	137
-0.399	0.789	1.2	33	137	136
-0.399	0.783	1.2	33	137	136
-0.399	0.777	1.2	35	138	137
-0.399	0.771	1.2	35	138	137
-0.399	0.765	1.2	35	140	136
-0.397	0.755	1.24	35	140	136
-0.397	0.749	1.24	36	141	137
-0.397	0.743	1.24	36	141	137
-0.397	0.737	1.24	36	143	137
-0.397	0.731	1.24	36	143	135
-0.397	0.725	1.24	37	144	136
-0.397	0.719	1.24	37	144	136
-0.397	0.713	1.24	37	144	136
-0.397	0.707	1.24	38	145	137
-0.397	0.701	1.24	38	145	137
-0.397	0.695	1.24	39	146	138
-0.394	0.684	1.28	37	147	136
-0.394	0.678	1.28	37	147	136
-0.394	0.673	1.28	38	148	137
-0.394	0.667	1.28	38	148	137
-0.394	0.661	1.28	39	149	138
-0.394	0.655	1.28	39	149	138
-0.394	0.649	1.28	39	149	136
-0.394	0.643	1.28	39	149	136
-0.394	0.637	1.28	39	149	136
-0.394	0.631	1.28	40	150	137
-0.394	0.625	1.28	40	150	137
-0.395	0.619	1.28	41	151	138
-0.392	0.609	1.32	40	152	138
-0.392	0.603	1.32	40	152	138
-0.392	0.597	1.32	41	153	139
-0.392	0.591	1.32	41	153	139
-0.392	0.585	1.32	41	153	139
-0.392	0.58	1.32	41	153	139
-0.392	0.574	1.32	42	154	138
-0.392	0.568	1.32	41	153	137
-0.392	0.562	1.32	41	153	137
-0.392	0.556	1.32	41	153	137
-0.392	0.55	1.32	40	155	138
-0.392	0.544	1.32	40	155	138
-0.392	0.538	1.32	40	155	138
-0.392	0.532	1.32	40	155	138
-0.392	0.526	1.32	40	155	138
-0.39	0.517	1.36	41	156	139
-0.39	0.511	1.36	41	156	139
-0.39	0.505	1.36	41	156	139
-0.39	0.499	1.36	41	156	139
-0.39	0.494	1.36	42	157	140
-0.39	0.488	1.36	42	157	140
-0.39	0.482	1.36	42	157	140
-0.39	0.476	1.36	42	157	140
-0.39	0.47	1.36	42	157	140
-0.39	0.464	1.36	42	157	140
-0.39	0.458	1.36	42	157	140
-0.39	0.452	1.36	42	157	142
-0.39	0.446	1.36	42	157	142
-0.39	0.441	1.36	42	157	142
-0.39	0.435	1.36	42	157	142
-0.39	0.429	1.36	42	157	142
-0.39	0.423	1.36	42	157	142
-0.39	0.417	1.36	42	159	143
-0.39	0.411	1.36	42	159	143
-0.388	0.403	1.4	42	158	145
-0.388	0.397	1.4	42	158	145
-0.388	0.391	1.4	42	158	145
-0.388	0.385	1.4	42	158	145
-0.388	0.379	1.4	42	158	145
-0.388	0.373	1.4	42	158	145
-0.388	0.368	1.4	41	157	146
-0.388	0.362	1.4	41	157	146
-0.388	0.356	1.4	41	157	146
-0.388	0.35	1.4	41	157	146
-0.388	0.344	1.4	41	157	148
-0.388	0.338	1.4	41	157	148
-0.388	0.332	1.4	41	157	148
-0.388	0.327	1.4	41	157	148
-0.388	0.321	1.4	41	157	148
-0.388	0.315	1.4	41	157	148
-0.388	0.309	1.4	41	157	148
-0.388	0.303	1.4	41	157	148
-0.388	0.297	1.4	41	156	149
-0.388	0.291	1.4	41	156	149
-0.388	0.286	1.4	41	156	149
-0.388	0.28	1.4	41	156	149
-0.388	0.274	1.4	41	156	149
-0.388	0.268	1.4	41	156	149
-0.388	0.262	1.4	41	156	151
-0.388	0.256	1.4	40	155	150
-0.388	0.25	1.4	40	155	150
-0.388	0.245	1.4	40	155	150
-0.385	0.237	1.44	40	155	152
-0.385	0.231	1.44	40	155	152
-0.385	0.226	1.44	40	155	152
-0.385	0.22	1.44	40	155	152
-0.385	0.214	1.44	40	154	154
-0.385	0.208	1.44	40	154	154
-0.385	0.202	1.44	40	154	154
-0.385	0.196	1.44	40	154	154
-0.385	0.191	1.44	39	153	154
-0.385	0.185	1.44	39	153	154
-0.385	0.179	1.44	39	153	154
-0.385	0.173	1.44	39	153	154
-0.385	0.167	1.44	39	153	154
-0.385	0.161	1.44	39	153	154
-0.385	0.156	1.44	39	152	156
-0.385	0.15	1.44	39	152	156
-0.385	0.144	1.44	39	152	156
-0.385	0.138	1.44	39	152	156
-0.385	0.132	1.44	39	152	156
-0.385	0.127	1.44	39	152	156
-0.385	0.121	1.44	39	152	158
-0.385	0.115	1.44	39	152	158
-0.385	0.109	1.44	38	151	157
-0.385	0.103	1.44	38	151	157
-0.385	0.0974	1.44	38	151	157
-0.385	0.0916	1.44	38	151	157
-0.385	0.0858	1.44	38	151	159
-0.385	0.0799	1.44	38	151	159
-0.385	0.0741	1.44	37	150	158
-0.385	0.0683	1.44	37	150	158
-0.385	0.0625	1.44	37	149	160
-0.385	0.0566	1.44	38	150	161
-0.385	0.0508	1.44	38	150	161
-0.385	0.045	1.44	37	149	160
-0.385	0.0392	1.44	37	150	158
-0.385	0.0333	1.44	37	149	160
-0.385	0.0275	1.44	38	149	160
-0.385	0.0217	1.44	38	148	161
-0.385	0.0158	1.44	37	147	160
-0.385	0.01	1.44	37	147	160
-0.385	0.0042	1.44	37	147	160
-0.385	-0.00163	1.44	37	147	160
-0.385	-0.00745	1.44	37	147	162
-0.385	-0.0133	1.44	37	147	162
-0.385	-0.0191	1.44	35	147	161
-0.385	-0.0249	1.44	35	147	161
-0.385	-0.0308	1.44	36	146	161
-0.385	-0.0366	1.44	36	146	161
-0.385	-0.0424	1.44	36	146	161
-0.385	-0.0482	1.44	35	145	162
-0.385	-0.0541	1.44	35	145	162
-0.385	-0.0599	1.44	35	145	162
-0.385	-0.0657	1.43	34	145	164
-0.385	-0.0715	1.43	34	145	164
-0.385	-0.0774	1.43	35	144	164
-0.385	-0.0832	1.43	35	144	164
-0.385	-0.089	1.43	34	143	163
-0.385	-0.0948	1.43	34	143	163
-0.385	-0.101	1.43	34	143	163
-0.385	-0.106	1.43	33	142	162
-0.385	-0.112	1.43	33	142	163
-0.385	-0.118	1.43	33	142	163
-0.385	-0.124	1.43	35	141	165
-0.385	-0.13	1.43	35	141	165
