ply
format ascii 1.0
element vertex 1090
property float32 x
property float32 y
property float32 z
property float32 nx
property float32 ny
property float32 nz
property uchar red
property uchar green
property uchar blue
end_header
264	61.8	144	0.321	-0.561	0.763	156	139	123
264	62.5	145	0.344	-0.535	0.771	157	140	124
264	63.4	146	0.344	-0.535	0.771	155	138	120
264	64.1	147	0.283	-0.47	0.836	160	141	124
264	64.9	148	0.27	-0.573	0.774	159	140	123
264	65.6	149	0.312	-0.501	0.807	160	141	124
264	66.2	150	0.312	-0.501	0.807	162	145	127
264	66.8	151	0.345	-0.405	0.847	165	148	130
264	67.3	152	0.286	-0.311	0.906	164	145	128
264	67.8	153	0.293	-0.476	0.829	167	148	131
264	68.4	154	0.345	-0.405	0.847	166	149	131
264	68.8	155	0.284	-0.304	0.909	166	149	131
264	69.2	156	0.284	-0.304	0.909	166	149	131
264	69.7	157	0.284	-0.304	0.909	167	148	131
264	70	158	0.322	-0.248	0.914	165	146	129
264	70.4	159	0.372	-0.114	0.921	162	143	126
264	70.6	160	0.372	-0.114	0.921	164	145	128
264	70.9	161	0.372	-0.114	0.921	162	143	126
264	71.1	162	0.372	-0.114	0.921	161	142	125
264	71.4	163	0.372	-0.114	0.921	161	144	126
264	71.5	164	0.369	-0.0914	0.925	161	144	126
264	71.7	165	0.369	-0.0914	0.925	161	144	126
264	71.9	166	0.351	-0.203	0.914	161	144	126
264	72.1	167	0.369	-0.0914	0.925	161	144	126
264	72.3	168	0.369	-0.0914	0.925	161	144	126
264	72.5	169	0.319	-0.0962	0.943	161	144	126
264	72.7	170	0.369	-0.0914	0.925	161	144	126
264	72.9	171	0.369	-0.0914	0.925	162	145	127
264	73	172	0.369	-0.0914	0.925	162	145	127
264	73.2	173	0.348	-0.0741	0.935	160	143	125
264	73.4	174	0.369	-0.0914	0.925	161	144	126
264	73.6	175	0.372	-0.114	0.921	161	144	126
264	73.8	176	0.372	-0.114	0.921	163	146	128
264	74	177	0.374	-0.0669	0.925	163	144	127
264	74.2	178	0.361	-0.0928	0.928	163	144	127
264	74.4	179	0.351	-0.203	0.914	163	146	128
264	74.6	180	0.369	-0.0914	0.925	163	146	128
264	74.7	181	0.385	-0.119	0.915	163	146	128
264	74.8	182	0.35	-0.0678	0.934	160	143	125
264	75	183	0.374	-0.0669	0.925	160	143	125
264	75.1	184	0.369	-0.0914	0.925	161	144	126
264	75.2	185	0.361	-0.0928	0.928	162	145	127
264	75.3	186	0.351	-0.203	0.914	162	145	125
264	75.5	187	0.372	-0.114	0.921	160	143	123
264	75.6	188	0.369	-0.0914	0.925	161	144	124
264	75.7	189	0.369	-0.0914	0.925	161	144	124
264	75.8	190	0.319	-0.0962	0.943	161	144	126
264	75.9	191	0.369	-0.0914	0.925	162	145	127
264	76	192	0.369	-0.0914	0.925	164	147	129
264	76.1	193	0.369	-0.0914	0.925	163	146	128
264	76.2	194	0.369	-0.0914	0.925	161	144	126
264	76.3	195	0.372	-0.114	0.921	161	144	126
264	76.3	196	0.35	-0.0678	0.934	160	143	125
264	76.3	197	0.369	-0.0914	0.925	160	143	125
264	76.4	198	0.372	-0.114	0.921	161	144	126
264	76.4	199	0.372	-0.114	0.921	162	145	127
264	76.5	200	0.385	-0.119	0.915	163	146	128
264	76.5	201	0.372	-0.114	0.921	162	145	127
264	76.5	202	0.372	-0.114	0.921	160	143	125
264	76.6	203	0.385	-0.119	0.915	161	144	126
264	76.6	204	0.35	-0.0678	0.934	161	144	126
264	76.6	205	0.374	-0.0669	0.925	162	145	127
264	76.6	206	0.372	-0.114	0.921	161	144	126
264	76.7	207	0.372	-0.114	0.921	161	144	126
264	76.6	208	0.374	-0.0669	0.925	161	144	126
264	76.6	209	0.351	-0.203	0.914	161	144	126
264	76.7	210	0.406	-0.24	0.882	161	144	126
264	76.7	211	0.369	-0.0914	0.925	163	146	128
264	76.7	212	0.369	-0.0914	0.925	161	144	126
264	76.6	213	0.299	-0.0777	0.951	161	144	126
264	76.6	214	0.351	-0.203	0.914	161	144	126
264	76.7	215	0.374	-0.0669	0.925	161	144	126
264	76.6	216	0.351	-0.203	0.914	158	141	123
264	76.6	217	0.319	-0.0962	0.943	160	143	123
264	76.6	218	0.319	-0.0962	0.943	160	143	125
264	76.6	219	0.339	-0.00451	0.941	159	142	124
264	76.5	220	0.348	0.0022	0.937	159	142	124
264	76.5	221	0.338	0.0132	0.941	158	141	123
264	76.4	222	0.338	0.0132	0.941	158	141	123
264	76.4	223	0.332	0.00282	0.943	159	142	124
264	76.3	224	0.322	-0.0069	0.947	160	143	125
264	76.3	225	0.338	0.0132	0.941	160	143	125
264	76.2	226	0.338	0.0132	0.941	160	143	125
264	76.1	227	0.338	0.0132	0.941	158	141	123
264	76.1	228	0.348	0.0022	0.937	158	141	123
264	76	229	0.338	0.0132	0.941	159	142	124
264	76	230	0.338	0.0132	0.941	159	142	124
264	75.9	231	0.322	-0.0069	0.947	158	141	123
264	75.8	232	0.322	-0.0069	0.947	159	142	124
264	75.8	233	0.322	-0.0069	0.947	158	141	123
264	75.7	234	0.348	0.0022	0.937	160	143	125
264	75.7	235	0.307	-0.0283	0.951	159	142	124
264	75.6	236	0.322	-0.0069	0.947	159	142	124
264	75.6	237	0.322	-0.0069	0.947	157	140	122
264	75.5	238	0.338	0.0132	0.941	159	142	124
264	75.4	239	0.338	0.0132	0.941	161	144	126
264	75.3	240	0.338	0.0132	0.941	162	145	127
264	75.3	241	0.338	0.0132	0.941	160	143	125
264	75.2	242	0.338	0.0132	0.941	159	140	123
264	75.2	243	0.348	0.0022	0.937	159	140	123
264	75.1	244	0.338	0.0132	0.941	162	143	126
264	75.1	245	0.338	0.0132	0.941	163	144	127
264	75	246	0.328	0.0832	0.941	162	145	127
264	74.9	247	0.307	0.0218	0.951	162	145	127
264	74.8	248	0.328	0.0832	0.941	162	145	127
264	74.7	249	0.328	0.0832	0.941	161	144	126
264	74.6	250	0.338	0.0132	0.941	161	144	126
264	74.6	251	0.338	0.0132	0.941	161	144	126
264	74.5	252	0.348	0.0022	0.937	161	144	126
264	74.4	253	0.338	0.0132	0.941	161	144	126
264	74.4	254	0.307	-0.0283	0.951	161	144	126
264	74.3	255	0.307	-0.0283	0.951	162	145	127
264	74.2	256	0.338	0.0132	0.941	162	143	126
264	74.2	257	0.338	0.0132	0.941	163	144	127
264	74.1	258	0.339	-0.00451	0.941	162	145	127
264	74	259	0.338	0.0132	0.941	162	145	127
264	73.9	260	0.338	0.0132	0.941	162	145	127
264	73.9	261	0.338	0.0132	0.941	162	145	127
264	73.8	262	0.355	0.00703	0.935	162	145	127
264	73.7	263	0.338	0.0132	0.941	162	145	127
264	73.6	264	0.307	-0.0283	0.951	162	145	127
264	73.5	265	0.339	-0.00451	0.941	163	144	127
264	73.5	266	0.307	-0.0283	0.951	164	145	128
264	73.4	267	0.284	-0.0537	0.957	160	141	124
264	73.4	268	0.338	0.0132	0.941	161	142	125
264	73.3	269	0.328	0.0832	0.941	162	143	126
264	73.2	270	0.322	-0.0069	0.947	161	144	126
264	73.2	271	0.348	0.0022	0.937	160	143	125
264	73.1	272	0.328	0.0832	0.941	161	144	126
264	72.9	273	0.338	0.0132	0.941	162	145	127
264	72.9	274	0.284	-0.0537	0.957	164	147	129
264	72.8	275	0.339	-0.00451	0.941	162	145	127
264	72.8	276	0.307	-0.0283	0.951	162	145	127
264	72.7	277	0.348	0.0022	0.937	163	144	127
264	72.6	278	0.322	-0.0069	0.947	162	143	126
264	72.6	279	0.304	-0.0279	0.952	164	145	128
264	72.5	280	0.355	0.00703	0.935	163	146	128
264	72.4	281	0.348	0.0022	0.937	162	145	127
264	72.3	282	0.284	-0.0537	0.957	161	146	127
264	72.2	283	0.348	0.0022	0.937	161	146	127
264	72.2	284	0.339	-0.00451	0.941	161	146	127
264	72.1	285	0.338	0.0132	0.941	161	144	126
264	72	286	0.339	-0.00451	0.941	161	144	126
264	71.9	287	0.338	0.0132	0.941	164	147	129
264	71.8	288	0.307	-0.0283	0.951	163	146	128
264	71.7	289	0.304	-0.0279	0.952	164	147	129
264	71.6	290	0.304	-0.0279	0.952	165	148	130
264	71.5	291	0.284	-0.0537	0.957	164	147	129
264	71.4	292	0.369	-0.0914	0.925	165	148	130
264	71.4	293	0.369	-0.0914	0.925	164	147	129
264	71.3	294	0.369	-0.0914	0.925	164	147	129
264	71.2	295	0.304	-0.0279	0.952	164	147	129
264	71.1	296	0.307	-0.0283	0.951	163	146	128
264	71	297	0.369	-0.0914	0.925	164	147	129
264	71	298	0.369	-0.0914	0.925	163	146	128
264	71	299	0.351	-0.203	0.914	166	149	131
264	70.9	300	0.307	-0.0283	0.951	166	149	131
264	70.8	301	0.304	-0.0279	0.952	168	151	133
264	70.7	302	0.284	-0.0537	0.957	164	147	129
264	70.6	303	0.307	-0.0283	0.951	165	148	130
264	70.6	304	0.304	-0.0279	0.952	163	146	128
264	70.5	305	0.307	-0.0283	0.951	165	146	129
264	70.4	306	0.307	-0.0283	0.951	165	146	129
264	70.4	307	0.307	-0.0283	0.951	165	148	130
264	70.3	308	0.372	-0.114	0.921	164	147	129
264	70.2	309	0.372	-0.114	0.921	166	149	131
264	70.1	310	0.369	-0.0914	0.925	167	150	132
264	70.1	311	0.265	-0.237	0.935	167	150	132
264	70.1	312	0.265	-0.237	0.935	164	147	129
264	70	313	0.319	-0.0962	0.943	163	146	128
264	70	314	0.369	-0.0914	0.925	167	150	130
264	69.9	315	0.284	-0.0537	0.957	168	150	130
264	69.8	316	0.319	-0.0962	0.943	168	150	130
264	69.8	317	0.374	-0.0669	0.925	168	150	130
264	69.8	318	0.369	-0.0914	0.925	168	150	130
264	69.7	319	0.319	-0.0962	0.943	168	150	130
264	69.7	320	0.369	-0.0914	0.925	168	150	130
264	69.7	321	0.299	-0.0777	0.951	167	149	129
264	69.6	322	0.284	-0.0537	0.957	167	149	129
264	69.6	323	0.307	-0.0283	0.951	166	148	128
264	69.5	324	0.304	-0.0279	0.952	166	148	128
264	69.5	325	0.369	-0.0914	0.925	165	148	128
264	69.5	326	0.369	-0.0914	0.925	165	148	128
264	69.5	327	0.369	-0.0914	0.925	164	147	129
264	69.4	328	0.284	-0.0537	0.957	165	148	130
264	69.4	329	0.284	-0.0537	0.957	165	148	130
264	69.3	330	0.304	-0.0279	0.952	163	146	128
264	69.3	331	0.299	-0.0777	0.951	164	147	129
264	69.2	332	0.284	-0.0537	0.957	162	145	127
264	69.2	333	0.284	-0.0537	0.957	160	143	125
264	69	334	0.307	-0.0283	0.951	160	143	125
264	69	335	0.369	-0.0914	0.925	161	144	126
264	68.9	336	0.284	-0.0537	0.957	159	142	124
264	68.8	337	0.361	-0.0928	0.928	158	139	122
264	68.7	338	0.372	-0.114	0.921	161	144	126
264	68.7	339	0.351	-0.203	0.914	160	143	125
264	68.6	340	0.384	-0.0624	0.921	159	142	124
264	68.5	341	0.38	-0.184	0.907	159	144	125
264	68.4	342	0.35	-0.0678	0.934	159	144	125
264	68.2	343	0.369	-0.0914	0.925	158	143	124
264	68.1	344	0.319	-0.0962	0.943	159	144	125
264	68	345	0.319	-0.0962	0.943	159	142	124
264	67.9	346	0.369	-0.0914	0.925	158	143	124
264	67.7	347	0.32	-0.0423	0.947	162	145	127
264	67.5	348	0.32	-0.0423	0.947	160	143	125
264	67.4	349	0.372	-0.114	0.921	161	144	126
264	67.2	350	0.374	-0.0669	0.925	160	143	125
264	67	351	0.348	0.0022	0.937	162	143	126
264	66.8	352	0.351	-0.203	0.914	162	143	126
264	66.6	353	0.372	-0.114	0.921	161	142	125
264	66.5	354	0.351	-0.203	0.914	160	143	125
264	66.3	355	0.351	-0.203	0.914	161	144	126
264	66.1	356	0.369	-0.0914	0.925	161	144	124
264	65.9	357	0.369	-0.0914	0.925	160	145	124
264	65.6	358	0.369	-0.0914	0.925	159	144	125
264	65.4	359	0.35	-0.0678	0.934	158	143	124
264	65.1	360	0.35	-0.0678	0.934	158	143	124
264	64.9	361	0.35	-0.0678	0.934	158	143	124
264	64.6	362	0.35	-0.0678	0.934	159	142	124
264	64.3	363	0.369	-0.0914	0.925	159	142	124
264	64.1	364	0.351	-0.203	0.914	159	142	124
264	63.9	365	0.351	-0.203	0.914	159	142	124
264	63.7	366	0.348	-0.0741	0.935	159	142	124
264	63.4	367	0.304	-0.0279	0.952	159	142	124
264	63.1	368	0.304	-0.0279	0.952	159	142	124
264	62.8	369	0.307	-0.0283	0.951	159	142	124
264	62.5	370	0.307	-0.0283	0.951	159	142	124
264	62.2	371	0.307	-0.0283	0.951	159	142	124
264	61.9	372	0.374	-0.0669	0.925	158	141	123
264	61.6	373	0.35	-0.0678	0.934	157	140	122
264	61.3	374	0.369	-0.0914	0.925	158	141	123
264	61	375	0.361	-0.0928	0.928	158	141	123
264	60.7	376	0.348	0.0022	0.937	158	141	123
264	60.3	377	0.304	-0.0279	0.952	158	141	123
264	60	378	0.322	-0.0069	0.947	157	140	122
264	59.6	379	0.355	0.00703	0.935	155	138	120
264	59.3	380	0.348	-0.0741	0.935	155	138	122
264	59	381	0.35	-0.0678	0.934	155	138	122
264	58.7	382	0.369	-0.0914	0.925	155	138	122
264	58.3	383	0.339	-0.00451	0.941	154	137	121
264	57.9	384	0.348	0.0022	0.937	153	136	120
264	57.5	385	0.348	0.0022	0.937	150	133	117
264	57.1	386	0.348	0.0022	0.937	148	131	115
264	56.8	387	0.338	0.0132	0.941	150	133	117
264	56.4	388	0.294	0.165	0.941	150	133	117
264	55.9	389	0.294	0.165	0.941	148	131	115
264	55.4	390	0.294	0.197	0.935	148	131	115
264	54.9	391	0.294	0.195	0.936	146	129	113
264	54.4	392	0.259	0.163	0.952	145	128	112
264	53.8	393	0.259	0.163	0.952	145	128	112
264	53.2	394	0.312	0.316	0.896	143	126	110
264	52.5	395	0.312	0.316	0.896	143	126	110
264	51.8	396	0.312	0.316	0.896	142	125	109
264	51	397	0.312	0.316	0.896	140	123	107
264	50.3	398	0.312	0.316	0.896	140	123	107
264	49.5	399	0.317	0.4	0.86	138	121	105
264	48.7	400	0.315	0.407	0.857	136	120	104
264	47.8	401	0.265	0.41	0.873	135	119	103
264	47	402	0.265	0.41	0.873	135	118	102
264	46.1	403	0.243	0.501	0.831	132	115	99
264	45.1	404	0.316	0.525	0.79	130	113	97
264	44.1	405	0.302	0.541	0.785	128	111	95
264	43	406	0.302	0.541	0.785	124	107	91
264	42	407	0.331	0.562	0.758	119	103	88
264	40.7	408	0.278	0.61	0.742	118	102	87
264	39.5	409	0.278	0.61	0.742	117	101	88
264	38.1	410	0.261	0.675	0.69	110	96	83
264	36.8	411	0.281	0.705	0.651	106	92	79
264	35.2	412	0.272	0.741	0.614	97	83	70
265	-7.94	46	0.116	-0.975	0.192	30	24	12
265	-2.65	47	0.257	-0.935	0.244	54	42	26
265	3.32	48	0.135	-0.978	0.157	91	76	57
265	9	49	0.281	-0.895	0.346	122	106	90
265	11.1	50	0.492	-0.691	0.529	150	133	113
265	13	51	0.389	-0.693	0.607	160	143	123
265	14.1	52	0.465	-0.54	0.702	163	146	128
265	15.3	53	0.455	-0.448	0.77	163	146	126
265	16	54	0.46	-0.453	0.763	166	149	129
265	16.9	55	0.401	-0.365	0.84	167	150	130
265	17.4	56	0.401	-0.365	0.84	167	149	129
265	18.2	57	0.445	-0.342	0.828	168	150	130
265	18.8	58	0.409	-0.38	0.83	167	149	129
265	19.6	59	0.445	-0.342	0.828	167	149	129
265	20.1	60	0.445	-0.342	0.828	167	150	130
265	20.8	61	0.448	-0.366	0.816	167	150	130
265	21.4	62	0.445	-0.376	0.813	167	150	130
265	22.1	63	0.445	-0.376	0.813	167	150	130
265	22.6	64	0.445	-0.376	0.813	167	150	130
265	23.2	65	0.356	-0.373	0.857	168	151	131
265	23.8	66	0.401	-0.365	0.84	167	150	132
265	24.4	67	0.371	-0.381	0.847	167	150	132
265	24.9	68	0.401	-0.365	0.84	167	150	132
265	25.5	69	0.371	-0.381	0.847	168	151	133
265	26	70	0.445	-0.342	0.828	168	151	133
265	26.6	71	0.389	-0.371	0.843	167	150	132
265	27.1	72	0.401	-0.365	0.84	167	150	132
265	27.6	73	0.389	-0.371	0.843	166	149	131
265	28.1	74	0.389	-0.371	0.843	166	149	131
265	28.6	75	0.389	-0.371	0.843	164	147	129
265	29.1	76	0.45	-0.358	0.818	161	143	123
265	29.4	77	0.529	-0.082	0.845	148	130	110
265	29.3	78	0.389	0.331	0.86	134	116	94
265	29.4	79	0.463	0.548	0.697	133	112	91
265	27.8	80	0.42	0.705	0.571	152	131	110
265	26.8	81	0.463	0.548	0.697	166	145	124
265	26.1	82	0.441	0.455	0.773	176	155	134
265	25.7	83	0.517	0.0798	0.852	179	158	137
265	25.7	84	0.516	-0.121	0.848	178	157	138
265	26.1	85	0.44	-0.407	0.801	178	157	138
265	26.5	86	0.404	-0.442	0.801	179	161	141
265	27.1	87	0.318	-0.576	0.753	174	156	136
265	27.9	88	0.289	-0.568	0.771	167	149	129
265	28.6	89	0.404	-0.442	0.801	164	146	126
265	29.2	90	0.352	-0.467	0.811	159	142	122
265	29.6	91	0.524	-0.0781	0.848	155	138	118
265	29.5	92	0.469	0.0249	0.883	158	141	121
265	29.5	93	0.469	-0.0252	0.883	161	144	124
265	29.5	94	0.469	0.0249	0.883	163	146	126
265	29.5	95	0.465	-0.0471	0.884	165	148	128
265	29.5	96	0.465	-0.0471	0.884	167	150	130
265	29.6	97	0.482	-0.222	0.847	167	150	130
265	29.8	98	0.401	-0.365	0.84	168	151	133
265	30.1	99	0.389	-0.371	0.843	168	151	133
265	30.5	100	0.401	-0.365	0.84	168	151	133
265	31.1	101	0.397	-0.437	0.807	163	146	126
265	31.7	102	0.38	-0.514	0.769	166	149	131
265	32.4	103	0.34	-0.564	0.753	163	146	126
265	33.1	104	0.34	-0.564	0.753	164	147	129
265	33.9	105	0.336	-0.568	0.751	167	149	129
265	34.6	106	0.34	-0.564	0.753	167	149	129
265	35.3	107	0.352	-0.467	0.811	167	150	130
265	35.7	108	0.389	-0.371	0.843	166	149	129
265	36.1	109	0.345	-0.211	0.915	167	150	130
265	36.3	110	0.345	-0.211	0.915	167	150	130
265	36.6	111	0.406	-0.24	0.882	166	149	129
265	36.7	112	0.35	-0.0678	0.934	169	152	132
265	36.9	113	0.35	-0.0678	0.934	168	151	131
265	37	114	0.372	-0.114	0.921	168	151	131
265	37.2	115	0.397	-0.184	0.899	168	151	133
265	37.4	116	0.351	-0.203	0.914	167	150	132
265	37.6	117	0.374	-0.0669	0.925	166	149	131
265	37.8	118	0.372	-0.114	0.921	166	149	131
265	38	119	0.372	-0.114	0.921	162	145	125
265	38.3	120	0.389	-0.371	0.843	156	138	118
265	38.9	121	0.34	-0.564	0.753	155	137	117
265	39.6	122	0.377	-0.557	0.74	153	136	118
265	40.4	123	0.293	-0.662	0.69	157	138	121
265	41.4	124	0.293	-0.662	0.69	158	139	124
265	42.3	125	0.293	-0.662	0.69	154	137	119
265	43.3	126	0.293	-0.662	0.69	154	137	119
265	44.3	127	0.227	-0.688	0.69	154	137	119
265	45.3	128	0.234	-0.692	0.683	152	135	117
265	46.4	129	0.247	-0.668	0.702	152	135	117
265	47.5	130	0.232	-0.747	0.623	153	136	118
265	48.7	131	0.252	-0.755	0.606	153	136	118
265	49.8	132	0.247	-0.668	0.702	153	136	118
265	50.8	133	0.247	-0.668	0.702	152	133	116
265	51.9	134	0.258	-0.684	0.683	154	135	118
265	52.9	135	0.258	-0.684	0.683	153	134	117
265	53.9	136	0.247	-0.668	0.702	152	133	116
265	54.9	137	0.257	-0.65	0.715	152	133	116
265	55.9	138	0.276	-0.678	0.681	153	134	117
265	56.9	139	0.251	-0.668	0.701	155	136	121
265	57.9	140	0.227	-0.688	0.69	154	135	120
265	58.9	141	0.344	-0.535	0.771	156	137	122
265	59.7	142	0.344	-0.535	0.771	155	138	122
265	60.6	143	0.269	-0.617	0.739	155	138	122
265	61.4	144	0.321	-0.561	0.763	156	139	123
265	62.3	145	0.267	-0.559	0.785	154	137	121
265	63	146	0.344	-0.535	0.771	158	141	123
265	63.7	147	0.312	-0.501	0.807	159	140	123
265	64.4	148	0.311	-0.536	0.785	159	140	123
265	65.1	149	0.303	-0.437	0.847	162	143	126
265	65.7	150	0.334	-0.447	0.829	160	143	125
265	66.3	151	0.345	-0.405	0.847	163	146	128
265	66.9	152	0.334	-0.422	0.843	163	144	127
265	67.4	153	0.345	-0.405	0.847	165	146	129
265	67.9	154	0.345	-0.405	0.847	165	148	130
265	68.4	155	0.322	-0.281	0.904	165	148	130
265	68.8	156	0.303	-0.333	0.893	166	149	131
265	69.3	157	0.284	-0.304	0.909	167	148	131
265	69.6	158	0.322	-0.248	0.914	165	146	129
265	69.9	159	0.345	-0.211	0.915	162	143	126
265	70.2	160	0.265	-0.237	0.935	164	145	128
265	70.5	161	0.372	-0.114	0.921	163	144	127
265	70.7	162	0.372	-0.114	0.921	160	141	124
265	70.9	163	0.369	-0.0914	0.925	161	144	126
265	71.1	164	0.351	-0.203	0.914	161	144	126
265	71.4	165	0.369	-0.0914	0.925	161	144	126
265	71.5	166	0.374	-0.0669	0.925	159	142	124
265	71.8	167	0.372	-0.114	0.921	158	141	123
265	71.9	168	0.369	-0.0914	0.925	159	142	124
265	72.1	169	0.369	-0.0914	0.925	162	145	127
265	72.3	170	0.387	-0.168	0.907	161	144	126
265	72.5	171	0.38	-0.184	0.907	161	144	126
265	72.7	172	0.374	-0.0669	0.925	161	144	126
265	72.9	173	0.369	-0.0914	0.925	161	144	126
265	73.1	174	0.369	-0.0914	0.925	158	141	123
265	73.2	175	0.372	-0.114	0.921	160	143	125
265	73.4	176	0.372	-0.114	0.921	162	145	127
265	73.7	177	0.374	-0.0669	0.925	163	144	127
265	73.8	178	0.369	-0.0914	0.925	161	142	125
265	74	179	0.351	-0.203	0.914	163	146	128
265	74.2	180	0.351	-0.203	0.914	163	146	128
265	74.4	181	0.369	-0.0914	0.925	163	146	128
265	74.5	182	0.351	-0.203	0.914	162	145	127
265	74.7	183	0.369	-0.0914	0.925	161	144	126
265	74.8	184	0.369	-0.0914	0.925	158	141	123
265	74.9	185	0.369	-0.0914	0.925	159	142	124
265	75	186	0.369	-0.0914	0.925	162	145	125
265	75.2	187	0.372	-0.114	0.921	161	144	124
265	75.3	188	0.299	-0.063	0.952	161	144	124
265	75.4	189	0.369	-0.0914	0.925	161	144	124
265	75.5	190	0.319	-0.0962	0.943	162	145	127
265	75.6	191	0.369	-0.0914	0.925	162	145	127
265	75.7	192	0.369	-0.0914	0.925	164	147	129
265	75.8	193	0.369	-0.0914	0.925	163	146	128
265	75.8	194	0.372	-0.114	0.921	160	143	125
265	75.9	195	0.372	-0.114	0.921	163	146	128
265	76	196	0.372	-0.114	0.921	162	145	127
265	76.1	197	0.369	-0.0914	0.925	162	145	127
265	76.1	198	0.372	-0.114	0.921	161	144	126
265	76.1	199	0.372	-0.114	0.921	160	143	125
265	76.2	200	0.351	-0.203	0.914	160	143	125
265	76.2	201	0.369	-0.0914	0.925	162	145	127
265	76.2	202	0.385	-0.119	0.915	162	145	127
265	76.3	203	0.385	-0.119	0.915	160	143	125
265	76.3	204	0.372	-0.114	0.921	160	143	125
265	76.3	205	0.372	-0.114	0.921	163	146	128
265	76.3	206	0.372	-0.114	0.921	161	144	126
265	76.3	207	0.351	-0.203	0.914	161	144	126
265	76.4	208	0.374	-0.0669	0.925	158	141	123
265	76.3	209	0.369	-0.0914	0.925	162	145	127
265	76.4	210	0.372	-0.2	0.907	162	145	127
265	76.4	211	0.369	-0.0914	0.925	161	144	126
265	76.4	212	0.372	-0.114	0.921	162	145	127
265	76.4	213	0.319	-0.0962	0.943	160	143	125
265	76.4	214	0.265	-0.237	0.935	161	144	126
265	76.4	215	0.374	-0.0669	0.925	161	144	126
265	76.3	216	0.374	-0.0669	0.925	161	144	126
265	76.3	217	0.319	-0.0962	0.943	161	144	124
265	76.3	218	0.307	-0.0283	0.951	161	144	126
265	76.2	219	0.284	-0.0537	0.957	161	144	126
265	76.2	220	0.361	-0.0928	0.928	161	144	126
265	76.2	221	0.339	-0.00451	0.941	160	143	125
265	76.2	222	0.338	0.0132	0.941	158	141	123
265	76.1	223	0.339	-0.00451	0.941	160	143	125
265	76.1	224	0.339	-0.00451	0.941	160	143	125
265	76	225	0.338	0.0132	0.941	158	141	123
265	75.9	226	0.338	0.0132	0.941	159	142	124
265	75.9	227	0.304	-0.0279	0.952	160	143	125
265	75.8	228	0.348	0.0022	0.937	156	139	121
265	75.8	229	0.348	0.0022	0.937	159	142	124
265	75.7	230	0.348	0.0022	0.937	159	142	124
265	75.7	231	0.348	0.0022	0.937	161	144	126
265	75.6	232	0.338	0.0132	0.941	159	142	124
265	75.5	233	0.322	-0.0069	0.947	158	141	123
265	75.5	234	0.322	-0.0069	0.947	160	143	125
265	75.4	235	0.338	0.0132	0.941	161	144	126
265	75.4	236	0.338	0.0132	0.941	162	145	127
265	75.3	237	0.338	0.0132	0.941	160	143	125
265	75.2	238	0.338	0.0132	0.941	159	142	124
265	75.2	239	0.338	0.0132	0.941	161	144	126
265	75.1	240	0.338	0.0132	0.941	161	144	126
265	75	241	0.339	-0.00451	0.941	159	142	124
265	75	242	0.348	0.0022	0.937	160	141	124
265	74.9	243	0.348	0.0022	0.937	160	141	124
265	74.9	244	0.328	0.0832	0.941	162	143	126
265	74.8	245	0.338	0.0132	0.941	163	144	127
265	74.7	246	0.339	-0.00451	0.941	160	143	125
265	74.6	247	0.328	0.0832	0.941	160	143	125
265	74.6	248	0.348	0.0022	0.937	161	144	126
265	74.4	249	0.328	0.0832	0.941	160	143	125
265	74.4	250	0.351	-0.203	0.914	161	144	126
265	74.4	251	0.338	0.0132	0.941	161	144	126
265	74.2	252	0.348	0.0022	0.937	162	145	127
265	74.2	253	0.322	-0.0069	0.947	161	144	126
265	74.1	254	0.339	-0.00451	0.941	162	145	127
265	74.1	255	0.339	-0.00451	0.941	162	145	127
265	74	256	0.338	0.0132	0.941	162	143	126
265	73.9	257	0.338	0.0132	0.941	163	144	127
265	73.8	258	0.339	-0.00451	0.941	162	145	127
265	73.8	259	0.338	0.0132	0.941	160	143	125
265	73.7	260	0.348	0.0022	0.937	160	143	125
265	73.6	261	0.348	0.0022	0.937	161	144	126
265	73.5	262	0.339	-0.00451	0.941	163	146	128
265	73.4	263	0.338	0.0132	0.941	162	145	127
265	73.4	264	0.307	-0.0283	0.951	162	145	127
265	73.3	265	0.304	-0.0279	0.952	163	144	127
265	73.3	266	0.322	-0.0069	0.947	165	146	129
265	73.2	267	0.307	-0.0283	0.951	161	142	125
265	73.1	268	0.369	-0.0914	0.925	161	142	125
265	73.1	269	0.284	-0.0537	0.957	162	143	126
265	73	270	0.307	-0.0283	0.951	161	144	126
265	72.9	271	0.307	-0.0283	0.951	160	143	125
265	72.8	272	0.322	-0.0069	0.947	162	145	127
265	72.7	273	0.284	-0.0537	0.957	162	145	127
265	72.7	274	0.284	-0.0537	0.957	163	146	128
265	72.6	275	0.307	-0.0283	0.951	162	145	127
265	72.6	276	0.348	0.0022	0.937	163	146	128
265	72.5	277	0.348	0.0022	0.937	161	142	125
265	72.4	278	0.304	-0.0279	0.952	165	146	129
265	72.4	279	0.369	-0.0914	0.925	164	145	128
265	72.3	280	0.284	-0.0537	0.957	163	146	128
265	72.2	281	0.304	-0.0279	0.952	162	145	127
265	72.1	282	0.307	-0.0283	0.951	161	146	127
265	72	283	0.319	-0.0962	0.943	160	145	126
265	72	284	0.369	-0.0914	0.925	160	145	126
265	71.9	285	0.339	-0.00451	0.941	162	145	127
265	71.8	286	0.284	-0.0537	0.957	161	144	126
265	71.7	287	0.338	0.0132	0.941	163	146	128
265	71.6	288	0.322	-0.0069	0.947	163	146	128
265	71.5	289	0.307	-0.0283	0.951	164	147	129
265	71.4	290	0.351	-0.203	0.914	165	148	130
265	71.4	291	0.338	0.0132	0.941	164	147	129
265	71.2	292	0.307	-0.0283	0.951	166	149	131
265	71.2	293	0.285	-0.0491	0.957	164	147	129
265	71.1	294	0.304	-0.0279	0.952	163	146	128
265	71.1	295	0.304	-0.0279	0.952	164	147	129
265	71	296	0.307	-0.0283	0.951	162	145	127
265	70.8	297	0.369	-0.0914	0.925	164	147	129
265	70.8	298	0.319	-0.0962	0.943	165	148	130
265	70.7	299	0.369	-0.0914	0.925	166	149	131
265	70.7	300	0.369	-0.0914	0.925	164	147	129
265	70.6	301	0.339	-0.00451	0.941	165	148	130
265	70.6	302	0.284	-0.0537	0.957	165	148	130
265	70.5	303	0.284	-0.0537	0.957	165	148	130
265	70.4	304	0.319	-0.0962	0.943	163	146	128
265	70.3	305	0.304	-0.0279	0.952	166	147	130
265	70.3	306	0.217	-0.315	0.924	167	148	131
265	70.3	307	0.307	-0.0283	0.951	164	147	129
265	70.1	308	0.307	-0.0283	0.951	162	145	127
265	70.1	309	0.307	-0.0283	0.951	165	148	130
265	70	310	0.369	-0.0914	0.925	166	149	131
265	69.9	311	0.299	-0.0777	0.951	166	149	131
265	69.9	312	0.217	-0.315	0.924	164	147	129
265	69.9	313	0.369	-0.0914	0.925	165	148	130
265	69.8	314	0.369	-0.0914	0.925	167	150	130
265	69.7	315	0.319	-0.0962	0.943	168	150	130
265	69.7	316	0.265	-0.237	0.935	168	150	130
265	69.6	317	0.369	-0.0914	0.925	168	150	130
265	69.6	318	0.369	-0.0914	0.925	168	150	130
265	69.6	319	0.369	-0.0914	0.925	168	150	130
265	69.5	320	0.319	-0.0962	0.943	166	148	128
265	69.5	321	0.299	-0.0777	0.951	167	149	129
265	69.5	322	0.217	-0.315	0.924	166	148	128
265	69.5	323	0.304	-0.0279	0.952	166	148	128
265	69.4	324	0.374	-0.0669	0.925	166	148	128
265	69.3	325	0.369	-0.0914	0.925	164	147	127
265	69.3	326	0.369	-0.0914	0.925	163	146	126
265	69.3	327	0.319	-0.0962	0.943	162	145	127
265	69.2	328	0.265	-0.237	0.935	163	146	128
265	69.2	329	0.35	-0.0678	0.934	162	145	127
265	69.1	330	0.369	-0.0914	0.925	161	144	126
265	69.1	331	0.374	-0.0669	0.925	159	142	124
265	69	332	0.265	-0.237	0.935	160	143	125
265	69	333	0.369	-0.0914	0.925	161	144	126
265	68.9	334	0.369	-0.0914	0.925	161	144	126
265	68.8	335	0.361	-0.0928	0.928	161	144	126
265	68.7	336	0.284	-0.0537	0.957	160	143	125
265	68.6	337	0.284	-0.0537	0.957	159	140	123
265	68.5	338	0.361	-0.0928	0.928	158	141	123
265	68.5	339	0.384	-0.0624	0.921	159	142	124
265	68.3	340	0.35	-0.0678	0.934	160	143	125
265	68.3	341	0.361	-0.0928	0.928	159	144	125
265	68.2	342	0.35	-0.0678	0.934	157	142	123
265	68.1	343	0.319	-0.0962	0.943	158	143	124
265	67.9	344	0.284	-0.0537	0.957	160	145	126
265	67.8	345	0.369	-0.0914	0.925	159	142	124
265	67.6	346	0.284	-0.0537	0.957	158	143	124
265	67.5	347	0.369	-0.0914	0.925	160	143	125
265	67.3	348	0.32	-0.0423	0.947	158	141	123
265	67.1	349	0.369	-0.0914	0.925	160	143	125
265	66.9	350	0.369	-0.0914	0.925	160	143	125
265	66.8	351	0.369	-0.0914	0.925	160	141	124
265	66.6	352	0.369	-0.0914	0.925	160	141	124
265	66.4	353	0.372	-0.114	0.921	161	142	125
265	66.2	354	0.372	-0.114	0.921	160	143	125
265	66	355	0.35	-0.0678	0.934	158	141	123
265	65.8	356	0.369	-0.0914	0.925	159	142	122
265	65.6	357	0.361	-0.0928	0.928	158	143	122
265	65.4	358	0.369	-0.0914	0.925	158	143	124
265	65.1	359	0.32	-0.0423	0.947	158	143	124
265	64.9	360	0.35	-0.0678	0.934	156	141	122
265	64.6	361	0.35	-0.0678	0.934	157	142	123
265	64.3	362	0.387	-0.122	0.914	157	140	122
265	64	363	0.284	-0.0537	0.957	157	140	122
265	63.8	364	0.351	-0.203	0.914	158	141	123
265	63.6	365	0.319	-0.0962	0.943	159	142	124
265	63.4	366	0.362	-0.116	0.925	160	143	125
265	63.1	367	0.304	-0.0279	0.952	159	142	124
265	62.8	368	0.369	-0.0914	0.925	157	140	122
265	62.6	369	0.385	-0.119	0.915	159	142	124
265	62.2	370	0.304	-0.0279	0.952	160	143	125
265	61.9	371	0.369	-0.0914	0.925	159	142	124
265	61.6	372	0.372	-0.114	0.921	159	142	124
265	61.3	373	0.348	-0.0741	0.935	158	141	123
265	61	374	0.372	-0.114	0.921	159	142	124
265	60.7	375	0.374	-0.0669	0.925	158	141	123
265	60.4	376	0.372	-0.114	0.921	158	141	123
265	60.1	377	0.304	-0.0279	0.952	158	141	123
265	59.7	378	0.304	-0.0279	0.952	159	142	124
265	59.4	379	0.304	-0.0279	0.952	155	138	120
265	59	380	0.348	-0.0741	0.935	155	138	122
265	58.8	381	0.374	-0.0669	0.925	157	140	124
265	58.4	382	0.339	-0.00451	0.941	156	139	123
265	58.1	383	0.339	-0.00451	0.941	154	137	121
265	57.7	384	0.348	0.0022	0.937	153	136	120
265	57.3	385	0.348	0.0022	0.937	150	133	117
265	56.9	386	0.348	0.0022	0.937	149	132	116
265	56.6	387	0.348	0.0022	0.937	151	134	118
265	56.1	388	0.355	0.00703	0.935	149	132	116
265	55.7	389	0.355	0.00703	0.935	146	129	113
265	55.2	390	0.348	0.0022	0.937	148	131	115
265	54.7	391	0.348	0.0022	0.937	146	129	113
265	54.2	392	0.259	0.163	0.952	144	127	111
265	53.7	393	0.282	0.239	0.929	145	128	112
265	53	394	0.312	0.316	0.896	144	127	111
265	52.3	395	0.289	0.184	0.939	141	124	108
265	51.6	396	0.312	0.316	0.896	142	125	109
265	50.8	397	0.312	0.316	0.896	140	123	107
265	50.1	398	0.289	0.278	0.916	138	121	105
265	49.3	399	0.249	0.412	0.877	138	121	105
265	48.4	400	0.315	0.407	0.857	136	120	104
265	47.7	401	0.249	0.412	0.877	135	119	103
265	46.8	402	0.265	0.41	0.873	134	117	101
265	45.9	403	0.243	0.501	0.831	131	114	98
265	44.8	404	0.316	0.525	0.79	130	113	97
265	43.8	405	0.366	0.511	0.778	129	112	96
265	42.7	406	0.316	0.525	0.79	128	111	95
265	41.7	407	0.302	0.541	0.785	122	106	91
265	40.4	408	0.263	0.656	0.708	118	102	87
265	39.2	409	0.263	0.656	0.708	115	99	86
265	37.8	410	0.261	0.675	0.69	111	97	84
265	36.5	411	0.281	0.705	0.651	106	92	79
265	34.9	412	0.375	0.707	0.6	96	82	69
266	-12	45	0.129	-0.976	0.173	25	21	12
266	-7.02	46	-0.0135	-0.974	0.226	32	24	11
266	-2.97	47	0.0472	-0.969	0.244	58	47	27
266	3.26	48	0.135	-0.978	0.157	92	77	56
266	8.53	49	0.281	-0.895	0.346	126	109	91
266	10.8	50	0.492	-0.691	0.529	149	132	112
266	12.6	51	0.468	-0.615	0.635	161	144	124
266	13.8	52	0.479	-0.491	0.728	167	150	132
266	14.8	53	0.499	-0.444	0.744	165	146	129
266	15.6	54	0.44	-0.407	0.801	165	146	129
266	16.4	55	0.44	-0.407	0.801	166	148	128
266	17.1	56	0.421	-0.333	0.844	166	148	128
266	17.9	57	0.44	-0.407	0.801	165	147	127
266	18.6	58	0.415	-0.404	0.815	167	149	129
266	19.2	59	0.415	-0.404	0.815	167	149	129
266	19.8	60	0.445	-0.342	0.828	167	149	129
266	20.4	61	0.425	-0.361	0.83	166	149	129
266	21	62	0.421	-0.333	0.844	167	150	130
266	21.6	63	0.425	-0.361	0.83	167	150	130
266	22.2	64	0.425	-0.361	0.83	167	150	130
266	22.9	65	0.361	-0.388	0.848	168	151	131
266	23.5	66	0.44	-0.407	0.801	167	150	132
266	24	67	0.448	-0.366	0.816	166	149	131
266	24.6	68	0.445	-0.342	0.828	165	148	130
266	25.1	69	0.445	-0.376	0.813	166	149	131
266	25.6	70	0.401	-0.365	0.84	167	150	132
266	26.2	71	0.401	-0.365	0.84	167	150	132
266	26.7	72	0.389	-0.371	0.843	166	149	131
266	27.3	73	0.361	-0.388	0.848	164	147	129
266	27.8	74	0.389	-0.371	0.843	166	149	131
266	28.2	75	0.352	-0.467	0.811	166	149	131
266	28.7	76	0.409	-0.38	0.83	161	142	125
266	29	77	0.529	-0.082	0.845	147	129	109
266	28.8	78	0.389	0.331	0.86	132	114	94
266	27.6	79	0.449	0.591	0.67	133	112	93
266	27.2	80	0.365	0.645	0.671	153	132	113
266	26.3	81	0.484	0.533	0.694	168	147	128
266	25.7	82	0.562	0.251	0.788	176	155	136
266	25.4	83	0.499	0.147	0.854	179	158	139
266	25.3	84	0.473	-0.231	0.85	178	160	140
266	25.4	85	0.44	-0.407	0.801	175	156	139
266	26	86	0.377	-0.557	0.74	174	155	138
266	26.7	87	0.378	-0.561	0.736	172	153	136
266	27.5	88	0.304	-0.664	0.683	169	150	133
266	28.3	89	0.286	-0.565	0.774	161	144	126
266	28.8	90	0.441	-0.342	0.83	157	140	120
266	29.1	91	0.526	-0.0689	0.848	159	141	121
266	29.1	92	0.465	-0.0471	0.884	161	143	123
266	29.1	93	0.469	0.0249	0.883	162	144	124
266	29	94	0.469	0.0249	0.883	163	145	125
266	29	95	0.469	-0.0252	0.883	165	148	128
266	29	96	0.465	-0.0471	0.884	167	150	130
266	29	97	0.465	-0.0471	0.884	169	152	132
266	29.2	98	0.397	-0.184	0.899	169	152	134
266	29.6	99	0.401	-0.424	0.812	168	151	131
266	30.1	100	0.416	-0.399	0.818	166	149	131
266	30.6	101	0.417	-0.475	0.775	162	145	125
266	31.2	102	0.376	-0.509	0.774	166	149	131
266	31.9	103	0.393	-0.478	0.785	164	147	127
266	32.6	104	0.357	-0.575	0.736	164	147	129
266	33.4	105	0.34	-0.564	0.753	165	147	127
266	34.2	106	0.318	-0.576	0.753	166	148	128
266	34.8	107	0.421	-0.333	0.844	165	148	128
266	35.3	108	0.389	-0.371	0.843	166	149	129
266	35.7	109	0.388	-0.176	0.905	169	152	132
266	35.9	110	0.388	-0.176	0.905	168	151	131
266	36.1	111	0.372	-0.114	0.921	165	148	128
266	36.2	112	0.361	-0.2	0.911	166	149	129
266	36.4	113	0.454	-0.124	0.882	169	151	131
266	36.5	114	0.369	-0.0914	0.925	168	151	131
266	36.7	115	0.447	-0.148	0.882	168	151	133
266	36.9	116	0.454	-0.124	0.882	168	151	133
266	37	117	0.406	-0.24	0.882	167	150	132
266	37.3	118	0.397	-0.294	0.87	165	148	130
266	37.6	119	0.388	-0.176	0.905	162	145	127
266	37.8	120	0.361	-0.388	0.848	156	137	120
266	38.4	121	0.352	-0.467	0.811	154	135	118
266	39.1	122	0.378	-0.561	0.736	153	136	120
266	40	123	0.293	-0.662	0.69	157	140	124
266	40.9	124	0.293	-0.662	0.69	157	140	124
266	41.8	125	0.275	-0.658	0.701	153	136	118
266	42.8	126	0.293	-0.662	0.69	153	136	118
266	43.9	127	0.234	-0.692	0.683	154	137	119
266	45	128	0.234	-0.692	0.683	152	135	117
266	46	129	0.234	-0.692	0.683	154	137	119
266	47.1	130	0.252	-0.755	0.606	154	137	119
266	48.3	131	0.252	-0.755	0.606	153	136	118
266	49.4	132	0.258	-0.684	0.683	153	136	118
266	50.4	133	0.258	-0.684	0.683	152	133	116
266	51.4	134	0.258	-0.684	0.683	154	135	118
266	52.5	135	0.234	-0.692	0.683	154	135	118
266	53.5	136	0.293	-0.662	0.69	154	135	118
266	54.5	137	0.258	-0.684	0.683	153	134	117
266	55.5	138	0.269	-0.617	0.739	156	137	122
266	56.5	139	0.251	-0.668	0.701	155	136	121
266	57.5	140	0.275	-0.658	0.701	155	136	121
266	58.4	141	0.234	-0.692	0.683	155	136	121
266	59.3	142	0.344	-0.535	0.771	155	138	122
266	60.1	143	0.296	-0.588	0.753	152	135	119
266	60.9	144	0.321	-0.561	0.763	156	139	123
266	61.6	145	0.289	-0.578	0.763	156	139	123
266	62.5	146	0.317	-0.555	0.769	158	141	125
266	63.3	147	0.312	-0.501	0.807	157	140	124
266	64	148	0.283	-0.47	0.836	160	141	124
266	64.7	149	0.317	-0.555	0.769	162	145	127
266	65.4	150	0.331	-0.416	0.847	160	143	125
266	65.9	151	0.33	-0.369	0.869	163	146	128
266	66.5	152	0.334	-0.422	0.843	163	146	128
266	67	153	0.265	-0.307	0.914	165	148	130
266	67.5	154	0.345	-0.405	0.847	163	146	128
266	68	155	0.322	-0.248	0.914	165	148	130
266	68.4	156	0.389	-0.371	0.843	165	148	130
266	68.9	157	0.342	-0.219	0.914	165	146	129
266	69.3	158	0.345	-0.211	0.915	167	148	131
266	69.6	159	0.372	-0.114	0.921	164	145	128
266	69.8	160	0.265	-0.237	0.935	161	142	125
266	70.1	161	0.265	-0.237	0.935	162	143	126
266	70.3	162	0.372	-0.114	0.921	160	141	124
266	70.5	163	0.372	-0.114	0.921	159	142	124
266	70.7	164	0.372	-0.114	0.921	160	143	125
266	70.9	165	0.374	-0.0669	0.925	161	144	126
266	71.1	166	0.374	-0.0669	0.925	161	144	126
266	71.4	167	0.372	-0.114	0.921	160	143	125
266	71.5	168	0.338	0.0132	0.941	160	143	125
266	71.7	169	0.385	-0.119	0.915	160	143	125
266	71.9	170	0.372	-0.114	0.921	162	145	127
266	72.2	171	0.375	-0.156	0.914	161	144	126
266	72.3	172	0.319	-0.0962	0.943	161	144	126
266	72.5	173	0.369	-0.0914	0.925	162	145	127
266	72.7	174	0.372	-0.114	0.921	160	143	125
266	72.9	175	0.372	-0.114	0.921	162	145	127
266	73.1	176	0.351	-0.203	0.914	160	143	125
266	73.3	177	0.351	-0.203	0.914	158	141	123
266	73.5	178	0.369	-0.0914	0.925	157	140	122
266	73.7	179	0.372	-0.114	0.921	160	143	125
266	73.9	180	0.369	-0.0914	0.925	160	143	125
266	74.1	181	0.299	-0.0777	0.951	162	145	127
266	74.2	182	0.388	-0.176	0.905	164	147	129
266	74.4	183	0.374	-0.0669	0.925	163	146	128
266	74.5	184	0.35	-0.0678	0.934	159	142	124
266	74.7	185	0.372	-0.114	0.921	159	142	124
266	74.8	186	0.372	-0.114	0.921	162	143	126
266	74.9	187	0.372	-0.114	0.921	162	143	126
266	75	188	0.35	-0.0678	0.934	160	141	124
266	75.1	189	0.369	-0.0914	0.925	159	142	124
266	75.2	190	0.369	-0.0914	0.925	161	144	126
266	75.3	191	0.38	-0.184	0.907	161	144	126
266	75.4	192	0.369	-0.0914	0.925	162	145	127
266	75.5	193	0.369	-0.0914	0.925	162	145	127
266	75.6	194	0.369	-0.0914	0.925	162	145	127
266	75.6	195	0.369	-0.0914	0.925	162	145	127
266	75.7	196	0.372	-0.114	0.921	159	142	124
266	75.7	197	0.372	-0.114	0.921	159	142	124
266	75.8	198	0.372	-0.114	0.921	161	144	126
266	75.8	199	0.35	-0.0678	0.934	161	144	126
266	75.9	200	0.35	-0.0678	0.934	159	142	124
266	75.9	201	0.369	-0.0914	0.925	161	144	126
266	75.9	202	0.385	-0.119	0.915	162	145	127
266	75.9	203	0.372	-0.114	0.921	162	145	127
266	76	204	0.299	-0.0777	0.951	162	145	127
266	76	205	0.372	-0.114	0.921	162	145	127
266	76	206	0.369	-0.0914	0.925	161	144	126
266	76	207	0.299	-0.0777	0.951	162	145	127
266	76	208	0.374	-0.0669	0.925	160	143	125
266	76	209	0.374	-0.0669	0.925	161	144	126
266	76	210	0.372	-0.114	0.921	161	144	126
266	76.1	211	0.372	-0.114	0.921	159	142	124
266	76.1	212	0.372	-0.114	0.921	161	144	126
266	76.1	213	0.372	-0.114	0.921	159	142	124
266	76.1	214	0.372	-0.114	0.921	159	142	124
266	76.1	215	0.372	-0.114	0.921	161	142	125
266	76.1	216	0.319	-0.0962	0.943	163	144	127
266	76	217	0.299	-0.063	0.952	162	143	126
266	76	218	0.319	-0.0962	0.943	162	145	127
266	76	219	0.369	-0.0914	0.925	160	143	125
266	75.9	220	0.369	-0.0914	0.925	160	143	125
266	76	221	0.351	-0.203	0.914	161	144	126
266	76	222	0.369	-0.0914	0.925	160	143	125
266	75.9	223	0.374	-0.0669	0.925	160	143	125
266	75.9	224	0.339	-0.00451	0.941	160	143	125
266	75.8	225	0.338	0.0132	0.941	158	141	123
266	75.7	226	0.338	0.0132	0.941	157	140	122
266	75.7	227	0.348	0.0022	0.937	159	142	124
266	75.6	228	0.338	0.0132	0.941	157	140	122
266	75.5	229	0.348	0.0022	0.937	157	140	122
266	75.5	230	0.348	0.0022	0.937	160	143	125
266	75.4	231	0.338	0.0132	0.941	160	143	125
266	75.4	232	0.338	0.0132	0.941	160	143	125
266	75.3	233	0.348	0.0022	0.937	160	143	125
266	75.3	234	0.322	-0.0069	0.947	160	143	125
266	75.2	235	0.332	0.00282	0.943	160	143	125
266	75.1	236	0.322	-0.0069	0.947	159	142	126
266	75.1	237	0.322	-0.0069	0.947	161	144	126
266	75	238	0.338	0.0132	0.941	161	144	126
266	74.9	239	0.338	0.0132	0.941	161	144	126
266	74.8	240	0.307	-0.0283	0.951	160	143	125
266	74.8	241	0.307	-0.0283	0.951	162	145	127
266	74.7	242	0.307	-0.0283	0.951	162	145	127
266	74.7	243	0.307	-0.0283	0.951	163	144	127
266	74.6	244	0.338	0.0132	0.941	164	145	128
266	74.5	245	0.348	0.0022	0.937	161	144	126
266	74.5	246	0.271	0.000572	0.962	160	143	125
266	74.4	247	0.338	0.0132	0.941	160	143	125
266	74.3	248	0.348	0.0022	0.937	161	144	126
266	74.2	249	0.339	-0.00451	0.941	162	145	127
266	74.1	250	0.338	0.0132	0.941	162	145	127
266	74.1	251	0.304	-0.0279	0.952	161	144	126
266	74	252	0.348	0.0022	0.937	161	144	128
266	74	253	0.304	-0.0279	0.952	162	145	129
266	73.9	254	0.348	0.0022	0.937	163	146	130
266	73.8	255	0.304	-0.0279	0.952	162	145	127
266	73.8	256	0.339	-0.00451	0.941	161	144	126
266	73.7	257	0.338	0.0132	0.941	163	144	127
266	73.6	258	0.339	-0.00451	0.941	162	145	127
266	73.5	259	0.307	-0.0283	0.951	160	143	125
266	73.5	260	0.369	-0.0914	0.925	161	144	126
266	73.4	261	0.339	-0.00451	0.941	160	143	125
266	73.3	262	0.338	0.0132	0.941	161	144	126
266	73.2	263	0.338	0.0132	0.941	162	145	127
266	73.2	264	0.284	-0.0537	0.957	163	146	128
266	73.1	265	0.334	-0.0574	0.941	162	145	127
266	73	266	0.284	-0.0537	0.957	164	145	128
266	73	267	0.338	0.0132	0.941	161	142	125
266	72.9	268	0.284	-0.0537	0.957	162	143	126
266	72.9	269	0.338	0.0132	0.941	162	145	127
266	72.8	270	0.338	0.0132	0.941	161	144	126
266	72.7	271	0.322	-0.0069	0.947	160	143	125
266	72.6	272	0.322	-0.0069	0.947	162	145	127
266	72.5	273	0.348	0.0022	0.937	162	145	125
266	72.4	274	0.338	0.0132	0.941	164	147	129
266	72.4	275	0.354	-0.23	0.907	163	146	128
266	72.3	276	0.369	-0.0914	0.925	163	146	128
266	72.2	277	0.348	0.0022	0.937	158	141	123
266	72.2	278	0.354	-0.23	0.907	161	144	126
266	72.2	279	0.369	-0.0914	0.925	159	142	124
266	72.1	280	0.338	0.0132	0.941	161	144	126
266	72	281	0.35	-0.0678	0.934	162	145	127
266	71.9	282	0.304	-0.0279	0.952	161	146	127
266	71.8	283	0.348	0.0022	0.937	159	144	125
266	71.7	284	0.351	-0.203	0.914	158	143	124
266	71.7	285	0.339	-0.00451	0.941	161	146	127
266	71.6	286	0.351	-0.203	0.914	162	145	127
266	71.6	287	0.338	0.0132	0.941	163	146	128
266	71.4	288	0.284	-0.0537	0.957	163	146	128
266	71.3	289	0.338	0.0132	0.941	163	146	128
266	71.2	290	0.284	-0.0537	0.957	162	145	127
266	71.1	291	0.304	-0.0279	0.952	162	145	127
266	71	292	0.304	-0.0279	0.952	164	147	129
266	71	293	0.354	-0.23	0.907	164	147	129
266	70.9	294	0.369	-0.0914	0.925	165	148	130
266	70.8	295	0.354	-0.23	0.907	165	148	130
266	70.8	296	0.307	-0.0283	0.951	163	146	128
266	70.7	297	0.369	-0.0914	0.925	165	148	130
266	70.6	298	0.35	-0.0678	0.934	164	147	129
266	70.5	299	0.307	-0.0283	0.951	167	150	132
266	70.5	300	0.284	-0.0537	0.957	167	150	132
266	70.4	301	0.319	-0.0962	0.943	167	150	130
266	70.3	302	0.369	-0.0914	0.925	165	148	128
266	70.3	303	0.319	-0.0962	0.943	166	148	128
266	70.2	304	0.307	-0.0283	0.951	164	145	128
266	70.1	305	0.369	-0.0914	0.925	166	147	130
266	70.1	306	0.372	-0.114	0.921	165	146	129
266	70.1	307	0.284	-0.0537	0.957	166	147	130
266	70	308	0.307	-0.0283	0.951	165	148	130
266	69.9	309	0.351	-0.203	0.914	165	148	130
266	69.9	310	0.284	-0.0537	0.957	164	147	129
266	69.8	311	0.284	-0.0537	0.957	166	149	131
266	69.8	312	0.285	-0.0491	0.957	166	149	131
266	69.7	313	0.369	-0.0914	0.925	167	150	132
266	69.6	314	0.369	-0.0914	0.925	166	149	131
266	69.5	315	0.284	-0.0537	0.957	166	149	131
266	69.5	316	0.299	-0.063	0.952	166	148	128
266	69.5	317	0.299	-0.063	0.952	167	149	129
266	69.4	318	0.265	-0.237	0.935	169	151	131
266	69.4	319	0.265	-0.237	0.935	167	149	129
266	69.4	320	0.299	-0.063	0.952	166	148	128
266	69.4	321	0.319	-0.0962	0.943	166	148	128
266	69.3	322	0.304	-0.0279	0.952	165	148	128
266	69.3	323	0.304	-0.0279	0.952	166	149	129
266	69.2	324	0.369	-0.0914	0.925	164	147	127
266	69.2	325	0.369	-0.0914	0.925	161	144	124
266	69.1	326	0.369	-0.0914	0.925	162	145	125
266	69.1	327	0.369	-0.0914	0.925	162	145	125
266	69.1	328	0.304	-0.0279	0.952	161	144	126
266	69	329	0.304	-0.0279	0.952	159	142	124
266	68.9	330	0.369	-0.0914	0.925	161	144	126
266	68.8	331	0.322	-0.0069	0.947	159	142	124
266	68.8	332	0.319	-0.0962	0.943	159	142	124
266	68.7	333	0.369	-0.0914	0.925	161	144	126
266	68.6	334	0.369	-0.0914	0.925	161	144	126
266	68.6	335	0.369	-0.0914	0.925	161	144	126
266	68.5	336	0.369	-0.0914	0.925	161	144	126
266	68.4	337	0.369	-0.0914	0.925	160	143	125
266	68.3	338	0.35	-0.0678	0.934	158	141	123
266	68.2	339	0.351	-0.203	0.914	158	141	123
266	68.1	340	0.372	-0.114	0.921	160	143	125
266	68	341	0.369	-0.0914	0.925	159	144	125
266	67.9	342	0.369	-0.0914	0.925	159	144	125
266	67.8	343	0.35	-0.0678	0.934	160	145	126
266	67.7	344	0.319	-0.0962	0.943	159	144	125
266	67.6	345	0.348	0.0022	0.937	157	140	122
266	67.4	346	0.369	-0.0914	0.925	160	143	125
266	67.3	347	0.369	-0.0914	0.925	160	143	125
266	67.1	348	0.32	-0.0423	0.947	160	143	125
266	66.9	349	0.369	-0.0914	0.925	161	142	125
266	66.7	350	0.369	-0.0914	0.925	161	142	125
266	66.5	351	0.369	-0.0914	0.925	161	142	125
266	66.3	352	0.361	-0.0928	0.928	162	143	126
266	66.1	353	0.369	-0.0914	0.925	161	142	125
266	65.9	354	0.351	-0.203	0.914	158	141	123
266	65.8	355	0.368	-0.172	0.914	157	140	122
266	65.5	356	0.372	-0.114	0.921	159	142	124
266	65.3	357	0.372	-0.114	0.921	158	143	124
266	65.1	358	0.374	-0.0669	0.925	158	143	124
266	64.9	359	0.38	-0.184	0.907	158	143	124
266	64.6	360	0.35	-0.0678	0.934	155	140	121
266	64.3	361	0.355	0.014	0.935	156	141	122
266	64.1	362	0.304	-0.0279	0.952	158	141	123
266	63.8	363	0.299	-0.063	0.952	157	140	122
266	63.6	364	0.319	-0.0962	0.943	158	141	123
266	63.3	365	0.374	-0.0669	0.925	159	142	124
266	63.1	366	0.374	-0.0669	0.925	159	142	124
266	62.8	367	0.372	-0.114	0.921	159	142	124
266	62.5	368	0.372	-0.114	0.921	159	142	124
266	62.2	369	0.372	-0.114	0.921	159	142	124
266	62	370	0.372	-0.114	0.921	159	142	124
266	61.7	371	0.372	-0.114	0.921	159	142	124
266	61.4	372	0.361	-0.0928	0.928	159	142	124
266	61.1	373	0.369	-0.0914	0.925	158	141	123
266	60.7	374	0.369	-0.0914	0.925	159	142	124
266	60.4	375	0.374	-0.0669	0.925	158	141	123
266	60.1	376	0.374	-0.0669	0.925	158	141	123
266	59.9	377	0.374	-0.0669	0.925	158	141	123
266	59.5	378	0.348	0.0022	0.937	160	143	125
266	59.2	379	0.374	-0.0669	0.925	157	140	122
266	58.8	380	0.35	-0.0678	0.934	157	140	122
266	58.5	381	0.372	-0.114	0.921	157	140	122
266	58.2	382	0.348	-0.0741	0.935	155	138	120
266	57.9	383	0.355	0.00703	0.935	154	137	121
266	57.5	384	0.307	0.0218	0.951	152	135	119
266	57.1	385	0.348	0.0022	0.937	148	131	115
266	56.7	386	0.355	0.00703	0.935	151	134	118
266	56.3	387	0.355	0.00703	0.935	151	134	118
266	55.9	388	0.348	0.0022	0.937	150	133	117
266	55.5	389	0.32	0.152	0.935	147	130	114
266	54.9	390	0.32	0.152	0.935	148	131	115
266	54.5	391	0.311	0.0808	0.947	147	130	114
266	54	392	0.294	0.165	0.941	146	129	113
266	53.4	393	0.321	0.198	0.926	145	128	112
266	52.8	394	0.319	0.247	0.915	142	125	109
266	52.1	395	0.304	0.247	0.92	141	124	108
266	51.4	396	0.312	0.316	0.896	142	125	109
266	50.6	397	0.312	0.316	0.896	140	123	107
266	49.9	398	0.293	0.353	0.889	139	122	106
266	49.1	399	0.279	0.393	0.876	138	121	105
266	48.2	400	0.279	0.393	0.876	136	120	104
266	47.4	401	0.32	0.4	0.859	134	118	102
266	46.6	402	0.354	0.424	0.833	134	116	102
266	45.6	403	0.354	0.424	0.833	132	114	100
266	44.6	404	0.316	0.525	0.79	129	111	97
266	43.5	405	0.316	0.525	0.79	129	111	97
266	42.5	406	0.302	0.541	0.785	126	108	94
266	41.4	407	0.343	0.574	0.743	124	108	93
266	40.2	408	0.263	0.656	0.708	118	102	89
266	38.9	409	0.263	0.656	0.708	114	98	85
266	37.5	410	0.276	0.678	0.682	109	95	82
266	36.2	411	0.313	0.708	0.633	105	91	78
266	34.5	412	0.272	0.741	0.614	95	81	68
267	-12.4	45	0.0124	-0.974	0.226	24	20	11
267	-7.04	46	-0.00677	-0.965	0.261	35	27	14
267	-2.98	47	0.257	-0.935	0.244	58	47	27
267	3.04	48	0.135	-0.978	0.157	94	79	58
267	8.49	49	0.281	-0.895	0.346	127	110	92
267	10.8	50	0.358	-0.764	0.536	148	131	111
267	12.4	51	0.468	-0.615	0.635	157	140	120
267	13.4	52	0.479	-0.488	0.73	164	147	129
267	14.4	53	0.499	-0.444	0.744	164	145	128
267	15.2	54	0.499	-0.444	0.744	166	147	130
267	16	55	0.499	-0.444	0.744	166	148	128
267	16.7	56	0.499	-0.444	0.744	169	151	131
267	17.5	57	0.499	-0.444	0.744	166	148	128
267	18.2	58	0.499	-0.444	0.744	166	148	128
267	18.8	59	0.445	-0.342	0.828	166	148	128
267	19.4	60	0.441	-0.342	0.83	167	149	129
267	20.1	61	0.415	-0.404	0.815	166	149	129
267	20.7	62	0.425	-0.361	0.83	166	149	129
267	21.3	63	0.425	-0.361	0.83	166	149	129
267	21.9	64	0.425	-0.361	0.83	166	149	129
267	22.5	65	0.415	-0.404	0.815	167	150	130
267	23	66	0.445	-0.376	0.813	167	150	132
267	23.6	67	0.445	-0.376	0.813	165	148	130
267	24.2	68	0.441	-0.342	0.83	164	147	129
267	24.7	69	0.415	-0.404	0.815	165	148	130
267	25.3	70	0.365	-0.333	0.869	167	150	132
267	25.8	71	0.415	-0.404	0.815	167	150	132
267	26.4	72	0.415	-0.404	0.815	166	149	131
267	26.9	73	0.445	-0.342	0.828	164	147	129
267	27.4	74	0.445	-0.342	0.828	165	148	130
267	27.8	75	0.415	-0.404	0.815	166	149	131
267	28.3	76	0.432	-0.385	0.816	160	141	124
267	28.6	77	0.529	-0.082	0.845	147	129	109
267	28.6	78	0.445	0.265	0.855	132	114	94
267	28.5	79	0.463	0.548	0.697	135	114	95
267	27	80	0.437	0.62	0.652	153	132	113
267	25.9	81	0.484	0.566	0.668	167	146	127
267	25.2	82	0.569	0.269	0.777	176	155	136
267	24.9	83	0.636	0.00579	0.772	178	157	138
267	24.9	84	0.52	-0.104	0.848	176	158	138
267	25.3	85	0.44	-0.407	0.801	174	155	138
267	25.7	86	0.398	-0.474	0.786	174	155	138
267	26.3	87	0.378	-0.561	0.736	170	151	134
267	27.1	88	0.385	-0.6	0.701	168	149	132
267	27.9	89	0.321	-0.577	0.751	160	143	125
267	28.4	90	0.371	-0.381	0.847	156	139	119
267	28.6	91	0.421	-0.118	0.899	162	144	124
267	28.7	92	0.529	-0.082	0.845	160	142	122
267	28.7	93	0.418	0.0694	0.906	161	143	123
267	28.6	94	0.49	0.0365	0.871	165	147	127
267	28.5	95	0.469	0.0249	0.883	165	148	128
267	28.5	96	0.465	-0.0471	0.884	167	150	130
267	28.6	97	0.465	-0.0471	0.884	168	151	131
267	28.8	98	0.445	-0.342	0.828	167	150	132
267	29.1	99	0.401	-0.365	0.84	164	147	127
267	29.6	100	0.431	-0.445	0.785	165	148	130
267	30.1	101	0.393	-0.478	0.785	165	148	128
267	30.7	102	0.397	-0.437	0.807	164	147	129
267	31.4	103	0.34	-0.564	0.753	164	147	127
267	32.2	104	0.366	-0.591	0.719	165	148	130
267	33	105	0.335	-0.588	0.736	165	147	127
267	33.7	106	0.34	-0.564	0.753	166	148	128
267	34.4	107	0.359	-0.454	0.815	167	150	130
267	34.9	108	0.401	-0.365	0.84	167	150	130
267	35.2	109	0.388	-0.176	0.905	167	150	130
267	35.4	110	0.406	-0.192	0.894	167	150	130
267	35.6	111	0.361	-0.2	0.911	167	150	130
267	35.8	112	0.406	-0.24	0.882	166	149	129
267	35.9	113	0.406	-0.24	0.882	168	150	130
267	36.1	114	0.397	-0.184	0.899	167	150	130
267	36.1	115	0.454	-0.124	0.882	168	151	133
267	36.3	116	0.43	-0.337	0.838	168	151	133
267	36.5	117	0.372	-0.114	0.921	168	151	133
267	36.7	118	0.397	-0.294	0.87	165	148	130
267	37	119	0.42	-0.3	0.857	162	145	127
267	37.4	120	0.415	-0.404	0.815	155	136	119
267	38	121	0.318	-0.576	0.753	151	132	115
267	38.6	122	0.378	-0.561	0.736	153	136	120
267	39.5	123	0.293	-0.662	0.69	155	138	122
267	40.4	124	0.344	-0.535	0.771	156	139	123
267	41.3	125	0.293	-0.662	0.69	154	137	119
267	42.3	126	0.247	-0.668	0.702	153	136	118
267	43.3	127	0.289	-0.73	0.62	153	136	118
267	44.5	128	0.289	-0.73	0.62	153	136	118
267	45.5	129	0.293	-0.662	0.69	154	137	119
267	46.6	130	0.289	-0.73	0.62	153	136	118
