ply
format ascii 1.0
element vertex 745
property float x
property float y
property float z
property float nx
property float ny
property float nz
property uchar diffuse_red
property uchar diffuse_green
property uchar diffuse_blue
end_header
3.45809 0.568277 1.03689 -0.0238942 -0.931965 0.36176 125 126 111
-0.4263 -0.762912 1.21123 -0.633932 -0.503245 0.587261 5 41 53
-0.410516 -0.782812 1.21127 -0.461376 -0.514287 0.72294 5 42 52
-0.388979 -0.799824 1.20526 -0.448659 -0.664957 0.597108 5 43 52
-0.387192 -0.782218 1.21546 -0.431087 -0.682047 0.590741 5 41 53
-0.347258 -0.802815 1.21589 -0.308116 -0.875961 -0.371157 5 42 52
-0.352797 -0.791735 1.21414 -0.252618 -0.607043 0.753447 5 42 52
-0.34052 -0.806054 1.21487 -0.466838 -0.855862 -0.222626 5 42 52
-0.280075 -0.829 1.22806 -0.179781 -0.490917 0.852455 5 42 52
-0.253367 -0.825728 1.21373 -0.255733 -0.829961 0.495748 5 42 52
-0.23128 -0.837572 1.2249 -0.204685 -0.951333 0.230369 5 42 53
-0.163635 -0.825781 1.22253 0.264976 -0.732745 0.626796 5 41 53
-0.145318 -0.829934 1.2109 0.0662497 -0.997781 -0.00661051 5 42 53
-0.120982 -0.85279 1.22515 -0.0500774 -0.886654 0.459715 5 42 53
-0.0489208 -0.835877 1.23273 0.484718 -0.66176 0.571946 5 43 52
0.106181 -0.877467 1.21717 -0.251905 -0.894408 0.369565 5 44 53
0.158652 -0.841104 1.2179 0.0402412 -0.960361 -0.275839 6 46 53
0.397216 -0.776626 1.20275 0.577061 -0.810465 0.100734 5 44 53
0.405464 -0.766766 1.22278 0.551766 -0.794243 -0.254426 5 45 53
0.610711 -0.655944 1.20332 0.0658861 -0.76101 0.645386 5 42 53
0.63226 -0.66227 1.19282 -0.48601 -0.621679 0.614255 5 42 54
0.668512 -0.641277 1.19815 -0.349926 -0.774671 0.526723 5 44 54
0.712285 -0.598118 1.18725 0.21935 -0.699065 0.680583 6 46 54
0.741589 -0.575574 1.18094 0.356123 -0.668145 0.653267 5 47 54
-0.793941 -0.51826 1.15483 -0.192165 -0.744205 0.639713 6 47 51
-0.436379 -0.783365 1.19979 -0.0611916 -0.377258 0.924084 5 42 52
-0.37607 -0.809572 1.18937 0.10054 -0.436922 0.893863 5 43 52
-0.370836 -0.808228 1.18371 -0.451189 -0.829326 0.329617 5 43 52
-0.360908 -0.811814 1.20589 -0.100662 -0.816058 0.569137 5 43 52
-0.367029 -0.791958 1.19735 -0.621198 -0.782326 0.0456039 5 43 52
-0.290662 -0.845987 1.2065 -0.368324 -0.929679 -0.00587553 5 43 52
-0.2711 -0.847601 1.19524 -0.278851 -0.954442 0.106217 5 44 52
-0.232046 -0.845998 1.20352 -0.849789 -0.512039 0.125199 5 43 52
-0.219684 -0.86892 1.20374 -0.209473 -0.860498 0.464397 5 44 53
-0.194149 -0.864952 1.19604 -0.211985 -0.924005 0.318241 5 44 53
-0.194467 -0.848182 1.20998 -0.162953 -0.948008 -0.273364 5 43 52
-0.162058 -0.857363 1.19112 0.296617 -0.695142 0.654825 5 44 53
-0.147711 -0.871981 1.20057 0.0512501 -0.830402 0.554802 5 44 52
-0.142084 -0.854788 1.20587 0.408513 -0.685248 0.602953 5 43 52
-0.143512 -0.898574 1.2114 -0.355432 -0.9199 0.165688 5 44 52
-0.121215 -0.854409 1.20768 0.270503 -0.648068 0.711924 5 43 52
-0.0773395 -0.900467 1.20411 -0.113524 -0.59896 0.792691 5 45 53
-0.0762514 -0.886859 1.20737 0.133288 -0.709004 0.692494 5 44 53
-0.0895518 -0.895682 1.21671 -0.400009 -0.565239 0.721456 5 44 53
-0.0317785 -0.870201 1.2057 -0.273136 -0.775265 0.569527 5 43 52
-0.0346829 -0.888297 1.20379 -0.26304 -0.797816 0.542494 5 44 52
0.00661181 -0.901983 1.21088 0.199927 -0.959774 0.197138 5 44 52
0.0894406 -0.872454 1.20332 -0.303344 -0.901086 0.309882 5 44 52
0.109449 -0.892672 1.19994 -0.28324 -0.806144 0.519527 5 43 52
0.131556 -0.893892 1.21448 -0.253766 -0.808021 0.5317 5 44 53
0.194177 -0.868072 1.2009 0.124443 -0.675339 0.726933 5 45 53
0.250192 -0.849032 1.19444 0.351203 -0.93602 0.0228648 5 45 53
0.26542 -0.83926 1.2056 0.0690677 -0.81644 0.573284 5 45 53
0.378229 -0.792612 1.20378 -0.200309 -0.976734 0.0765932 5 44 53
0.447601 -0.782758 1.18781 0.0446171 -0.416238 0.90816 5 42 54
0.464362 -0.770647 1.18445 0.0885627 -0.383877 0.919128 5 41 53
0.468576 -0.776344 1.18372 0.225801 -0.384254 0.895189 5 41 53
0.592093 -0.687961 1.18145 0.159318 -0.513703 0.843047 4 40 54
0.660422 -0.652233 1.17904 0.18781 -0.938128 0.290935 5 43 54
0.673074 -0.671663 1.17595 0.564388 -0.824695 -0.036661 5 43 54
0.721865 -0.600463 1.15754 0.118969 -0.788411 0.603535 6 45 54
-0.67988 -0.704554 1.14921 0.180466 -0.972342 0.148269 5 43 52
-0.672634 -0.670548 1.15734 -0.290049 -0.41534 0.862185 5 43 52
-0.661212 -0.691896 1.14964 -0.217924 -0.80023 0.558696 5 42 51
-0.591426 -0.752442 1.16396 -0.436002 -0.714453 0.547229 5 41 52
-0.401085 -0.820324 1.18046 -0.664131 -0.616296 0.423213 5 44 53
-0.400886 -0.837849 1.16577 0.0485161 -0.996426 0.0691465 5 45 53
-0.37075 -0.827674 1.18522 0.318783 -0.524249 0.789646 5 44 52
-0.381711 -0.827878 1.1718 -0.136702 -0.753298 0.643316 5 45 53
-0.347434 -0.812796 1.17613 -0.179573 -0.835312 0.519622 5 44 52
-0.338086 -0.857198 1.16852 -0.591643 -0.464818 0.658713 6 47 53
-0.338086 -0.857198 1.16852 -0.591643 -0.464818 0.658713 6 47 53
-0.294716 -0.849851 1.18413 -0.0936259 -0.444665 0.89079 5 45 53
-0.294643 -0.841586 1.17776 0.0351086 -0.62967 0.776069 5 45 53
-0.275682 -0.857531 1.17416 -0.400536 -0.805309 0.43709 5 46 53
-0.250706 -0.852168 1.18457 -0.0475181 -0.942325 0.33131 5 45 53
-0.223634 -0.851576 1.18048 -0.24484 -0.898163 0.365179 5 45 53
-0.218688 -0.851071 1.17193 -0.0474792 -0.942207 0.331648 6 46 53
-0.189745 -0.880418 1.1748 -0.401186 -0.816942 0.414314 6 46 53
-0.180693 -0.868301 1.1865 0.164548 -0.555497 0.815075 5 44 53
-0.164054 -0.876445 1.18182 0.253805 -0.739079 0.623975 5 45 53
-0.149746 -0.891622 1.19318 -0.359455 -0.918624 0.164082 5 45 53
-0.151312 -0.891097 1.19354 0.0691689 -0.549322 0.832743 5 45 53
-0.142773 -0.902528 1.18831 -0.25663 -0.896747 0.360536 6 46 53
-0.138334 -0.893702 1.19344 0.179354 -0.722441 0.667766 5 45 53
-0.0506148 -0.887494 1.19565 0.142367 -0.510457 0.848036 5 44 53
-0.0613899 -0.877014 1.18969 0.047863 -0.808448 0.586618 5 44 53
-0.0251774 -0.891309 1.19275 -0.236978 -0.71434 0.658452 5 45 53
-0.00711308 -0.904658 1.19365 -0.564607 -0.816579 0.120076 5 46 53
0.0995518 -0.899626 1.17628 -0.0116649 -0.751376 0.659771 5 45 53
0.108353 -0.904737 1.18658 0.322853 -0.387056 0.863686 5 44 53
0.128264 -0.899313 1.1904 -0.0168127 -0.689512 0.724079 5 44 52
0.161669 -0.887437 1.18184 0.075149 -0.85229 0.517644 5 43 52
0.177413 -0.893735 1.17832 0.0196488 -0.877193 0.479736 5 43 52
0.230111 -0.859424 1.18851 0.122494 -0.680556 0.722384 5 44 53
0.266195 -0.840231 1.18159 0.106219 -0.690735 0.715264 5 45 53
0.28685 -0.864779 1.18353 0.0733078 -0.373134 0.924877 5 43 53
0.429356 -0.816013 1.17168 0.0677729 -0.427949 0.901259 5 41 53
0.457099 -0.798154 1.17801 0.165663 -0.415915 0.894187 5 41 54
0.464663 -0.812523 1.1666 0.0491683 -0.53824 0.841356 4 41 54
0.476736 -0.791705 1.17249 0.40021 -0.421285 0.813849 5 41 54
0.55424 -0.744129 1.15615 0.686419 -0.619446 0.380939 6 39 54
0.602857 -0.74764 1.1614 0.354078 -0.416136 0.837532 5 41 55
0.660378 -0.671258 1.16207 -0.085753 -0.464582 0.881368 5 42 54
0.666095 -0.689042 1.14209 0.127833 -0.991078 -0.0377188 5 42 54
0.85727 -0.48563 1.1208 0.165713 -0.845735 0.507219 6 49 54
0.857321 -0.485642 1.12083 0.159976 -0.850787 0.500569 6 49 54
0.939636 -0.380522 1.1075 0.598096 -0.754102 -0.271313 7 51 52
-0.732047 -0.669954 1.12884 -0.379853 -0.770374 0.51209 5 45 52
-0.72031 -0.668576 1.12444 -0.489569 -0.766423 0.415833 5 44 52
-0.695009 -0.694026 1.12403 0.638161 -0.65186 0.40967 5 43 52
-0.583981 -0.764653 1.13851 -0.0690984 -0.992427 -0.101557 5 43 52
-0.592309 -0.739683 1.14689 -0.652962 -0.64344 0.399532 5 42 51
-0.538175 -0.790915 1.13907 -0.334683 -0.931935 0.139587 5 43 52
-0.438707 -0.844918 1.14431 -0.697017 -0.67899 0.23052 6 47 53
-0.456073 -0.831991 1.15165 -0.405916 -0.784399 0.46899 5 46 53
-0.262758 -0.865737 1.16477 -0.0462121 -0.939919 0.338256 6 47 53
-0.223522 -0.907995 1.16393 -0.263974 -0.723439 0.637929 6 47 54
-0.181696 -0.902722 1.15585 -0.219929 -0.925634 0.30795 6 48 53
0.130892 -0.917028 1.17442 -0.275448 -0.683357 0.67613 5 46 53
0.370974 -0.872863 1.1519 0.135555 -0.590029 0.795921 5 41 54
0.405855 -0.855108 1.15407 0.143147 -0.686705 0.712703 5 41 54
0.450385 -0.837104 1.15864 0.161739 -0.579687 0.798626 4 40 54
0.476377 -0.828632 1.14108 -0.409593 -0.77315 0.484224 6 39 54
0.502721 -0.805791 1.14462 0.0682691 -0.810854 0.581253 6 39 54
0.535323 -0.793525 1.14167 0.115719 -0.601814 0.790208 4 40 54
0.562979 -0.762916 1.14599 0.214524 -0.498557 0.839893 4 40 54
0.553951 -0.780895 1.1414 0.530349 -0.812427 0.242264 5 41 55
0.58131 -0.750805 1.14886 0.278192 -0.614262 0.738439 5 41 55
0.603793 -0.756654 1.13941 0.381422 -0.568206 0.72915 5 42 54
0.701589 -0.712153 1.13479 0.744495 -0.504207 0.437609 6 44 54
0.704036 -0.697574 1.12167 0.597681 -0.627864 0.498562 6 45 54
0.715218 -0.665083 1.11495 0.735115 -0.536206 0.414836 6 45 54
0.739693 -0.634022 1.11749 0.739371 -0.666475 0.0956127 6 45 54
0.744422 -0.663094 1.12933 0.330501 -0.942732 -0.0449984 5 45 54
-0.75436 -0.696054 1.09705 0.195032 -0.908033 0.370728 5 45 52
-0.757876 -0.68254 1.11023 0.330313 -0.747634 0.576139 5 46 52
-0.732955 -0.678276 1.10674 -0.318118 -0.846422 0.427049 5 44 52
-0.737047 -0.684084 1.09919 -0.142525 -0.939734 0.310785 5 44 52
-0.735344 -0.710369 1.11275 -0.318478 -0.596056 0.737082 5 44 52
-0.714465 -0.706729 1.10367 0.229173 -0.970287 0.0776033 5 43 52
-0.717663 -0.698265 1.11803 -0.378669 -0.876447 0.297405 5 43 52
-0.691504 -0.723031 1.11928 -0.702224 -0.693233 0.162203 5 43 52
-0.674333 -0.746185 1.12539 -0.223178 -0.859055 0.46067 5 42 51
-0.653323 -0.74846 1.1151 -0.490601 -0.427088 0.759544 5 42 51
-0.578742 -0.802836 1.12203 -0.192007 -0.440945 0.876756 5 44 52
-0.575234 -0.835228 1.12168 0.0671755 -0.997559 0.0190516 5 44 52
-0.556343 -0.821254 1.1234 0.304659 -0.622543 0.720849 5 45 53
-0.543606 -0.819455 1.1285 0.307168 -0.628153 0.714893 5 45 53
-0.512637 -0.827435 1.13291 -0.636709 -0.756769 0.147996 5 46 53
-0.411421 -0.867117 1.14008 0.489628 -0.865471 0.105942 6 47 53
-0.371905 -0.898221 1.14423 -0.268074 -0.684019 0.67842 7 48 53
-0.249576 -0.91418 1.14905 -0.0251531 -0.588935 0.807789 7 49 53
-0.230499 -0.923515 1.14319 -0.217686 -0.957484 0.189307 6 49 52
-0.20887 -0.922453 1.15485 0.0127573 -0.472849 0.881051 6 48 53
-0.190281 -0.918427 1.14635 -0.42043 -0.849526 0.318659 6 49 53
-0.179346 -0.913543 1.13414 0.184776 -0.982688 -0.0134729 6 49 53
-0.0597815 -0.953776 1.15646 -0.0550697 -0.487303 0.871495 6 49 53
-0.0579187 -0.969349 1.15594 -0.268559 -0.578192 0.770435 6 49 52
-0.0482789 -0.974386 1.14257 -0.404931 -0.432987 0.805328 6 50 52
-0.0253735 -0.99935 1.14956 -0.39643 -0.565427 0.723281 6 50 52
0.026586 -0.971861 1.14191 -0.218112 -0.518633 0.826709 6 49 52
0.0167911 -0.944396 1.14813 -0.2269 -0.639556 0.734496 6 48 54
0.0734979 -0.958402 1.14948 -0.253159 -0.611865 0.749354 6 48 54
0.205381 -0.961141 1.14768 0.141855 -0.983807 0.109547 6 46 53
0.2256 -0.932685 1.15391 0.30372 -0.795189 0.524814 5 45 53
0.244442 -0.935235 1.14141 0.356775 -0.68761 0.63238 5 45 53
0.275794 -0.935635 1.13978 0.166166 -0.678416 0.71564 5 45 53
0.454409 -0.845119 1.13934 0.590039 -0.479438 0.64961 6 39 54
0.483851 -0.843956 1.13048 0.146535 -0.788013 0.597966 5 40 54
0.497791 -0.835298 1.13204 0.546089 -0.433938 0.716579 4 40 54
0.522008 -0.811111 1.1345 0.200164 -0.788893 0.581018 5 40 54
0.558772 -0.777856 1.1274 0.101535 -0.681888 0.724376 5 41 55
0.550895 -0.789485 1.12667 0.079521 -0.616948 0.782976 5 41 55
0.543721 -0.790625 1.12057 0.0566231 -0.420269 0.905631 5 41 55
0.564817 -0.778419 1.12148 0.171639 -0.456758 0.872876 5 42 54
0.667556 -0.735376 1.11841 0.642687 -0.619616 0.450588 5 45 54
0.686927 -0.726109 1.12463 0.0338424 -0.659018 0.751365 6 45 54
0.749607 -0.705588 1.10349 0.756672 -0.646293 -0.0987594 6 47 55
0.749956 -0.651962 1.10594 0.664991 -0.743502 0.0706528 6 46 54
-0.769393 -0.716324 1.07795 0.0709728 -0.893508 0.443403 5 45 52
-0.776013 -0.697531 1.08224 0.0405453 -0.976542 0.211475 5 46 52
-0.776467 -0.701075 1.08118 -0.503973 -0.751798 0.425218 5 46 52
-0.752522 -0.705635 1.07942 0.103953 -0.823331 0.557961 5 44 52
-0.701211 -0.744699 1.08571 -0.0742248 -0.857447 0.509191 5 42 51
-0.658994 -0.769132 1.09951 -0.731778 -0.678255 0.0668733 5 43 52
-0.550647 -0.848959 1.11561 0.384212 -0.689603 0.613864 6 47 53
-0.530943 -0.835028 1.11837 0.306213 -0.626025 0.717165 6 47 53
-0.40451 -0.895421 1.12125 0.0494241 -0.688556 0.723497 6 49 52
-0.199455 -0.918995 1.12192 0.121913 -0.699087 0.704567 6 50 52
-0.131054 -0.975234 1.12263 0.384894 -0.898908 0.209332 7 51 51
0.0554706 -0.991644 1.13369 -0.222017 -0.902333 0.369464 6 50 52
0.157017 -0.965687 1.1255 -0.588947 -0.646432 0.485043 6 48 54
0.205532 -0.963249 1.12422 0.133877 -0.986525 0.0940513 6 47 54
0.293165 -0.941334 1.1262 0.00172767 -0.861252 0.508176 5 45 53
0.318705 -0.956909 1.11851 -0.0614619 -0.762646 0.643889 5 45 53
0.321102 -0.920336 1.13051 0.660512 -0.730445 0.173706 5 43 53
0.501094 -0.865669 1.11992 0.541635 -0.425178 0.725159 5 41 55
0.605379 -0.801023 1.09272 0.426423 -0.456218 0.781043 5 45 54
0.639597 -0.799021 1.09522 0.174495 -0.728686 0.662245 6 46 54
0.702723 -0.72369 1.09594 0.122645 -0.5523 0.824574 6 47 55
0.686185 -0.732956 1.10166 0.477677 -0.669545 0.568801 6 46 54
0.789381 -0.689762 1.0876 0.611275 -0.76078 -0.218076 6 48 55
0.796448 -0.674577 1.0854 0.611973 -0.756341 -0.231164 6 48 55
-0.789084 -0.715595 1.05849 -0.488819 -0.749794 0.445943 5 45 52
-0.791194 -0.715916 1.06998 -0.627538 -0.469144 0.621369 5 45 52
-0.771061 -0.720297 1.06012 -0.228273 -0.973134 0.0300118 5 44 52
-0.745178 -0.725394 1.07715 -0.257933 -0.940166 0.222618 5 43 52
-0.648303 -0.814549 1.08905 0.235763 -0.41855 0.877059 5 43 52
-0.666514 -0.768839 1.07978 -0.00885376 -0.925704 0.378146 5 43 52
-0.624374 -0.82806 1.08345 0.599199 -0.339909 0.724861 5 44 52
-0.592246 -0.830714 1.0734 -0.503885 -0.856259 -0.113671 6 47 53
-0.476511 -0.896854 1.09804 0.204447 -0.78692 0.582201 6 49 52
-0.317989 -0.953985 1.10718 -0.548985 -0.648534 0.527276 7 51 51
-0.159909 -0.993804 1.10586 -0.0741708 -0.837259 0.541753 7 51 50
-0.1307 -0.986816 1.10317 -0.0713007 -0.86812 0.491206 7 51 50
-0.1307 -0.986816 1.10317 -0.0713007 -0.86812 0.491206 7 51 50
-0.115583 -0.97627 1.11241 -0.222874 -0.943028 -0.247033 7 51 51
-0.0686798 -1.02155 1.1109 0.435391 -0.865684 0.247035 7 52 51
0.156759 -0.981394 1.10976 -0.250807 -0.961301 0.114002 6 49 53
0.165285 -0.986822 1.10218 0.134768 -0.985819 0.0999945 6 50 53
0.175496 -0.975745 1.11909 0.147536 -0.980849 0.127152 7 48 54
0.188397 -0.979789 1.11131 -0.00184557 -0.982251 0.18756 6 49 54
0.205509 -0.984471 1.10169 -0.113947 -0.852337 0.51043 6 49 53
0.232957 -0.986735 1.1088 -0.334886 -0.934167 0.123217 6 48 54
0.480408 -0.913994 1.09385 0.362 -0.794624 0.487369 5 42 54
0.644462 -0.777812 1.07444 0.011603 -0.769419 0.638638 6 46 54
0.748502 -0.741292 1.05914 0.469989 -0.852012 -0.230622 6 50 54
0.755325 -0.719887 1.06222 0.101324 -0.992586 -0.0671291 6 50 54
0.789233 -0.693148 1.06772 0.610427 -0.765322 -0.204108 6 50 54
0.790197 -0.725963 1.05955 0.333969 -0.925049 -0.180966 6 51 54
0.795463 -0.713799 1.05364 0.243697 -0.959088 -0.14409 6 51 54
0.810881 -0.697242 1.05213 0.702038 -0.702785 -0.115043 6 51 53
-0.954094 -0.564716 1.01125 -0.597255 -0.787634 0.151395 7 52 49
-0.789657 -0.742189 1.05103 -0.178023 -0.880145 0.440059 5 44 52
-0.768481 -0.757757 1.0431 0.205893 -0.520746 0.828512 5 43 52
-0.75609 -0.772789 1.05573 0.0271017 -0.864112 0.502569 5 43 52
-0.713516 -0.783577 1.04503 0.468822 -0.679517 0.564325 5 42 51
-0.647409 -0.821526 1.06761 -0.0324909 -0.978281 0.20472 5 44 52
-0.621968 -0.838398 1.06357 -0.189658 -0.965597 0.17791 5 46 53
-0.571583 -0.874311 1.07928 -0.346611 -0.93765 -0.0259472 6 47 53
-0.591534 -0.875323 1.06799 -0.596481 -0.800496 0.0584537 6 47 53
-0.473151 -0.906406 1.08012 -0.143918 -0.777602 0.612064 5 49 52
-0.463857 -0.932207 1.07638 -0.250416 -0.759926 0.599836 6 50 51
-0.443518 -0.94167 1.07009 0.0411033 -0.735805 0.675945 7 51 51
-0.443343 -0.917035 1.08422 -0.259666 -0.95646 -0.133261 6 50 51
-0.31041 -0.974773 1.07768 -0.361379 -0.668043 0.650479 7 52 50
-0.280367 -1.00079 1.08934 0.273903 -0.622879 0.732803 7 53 50
-0.260177 -0.984051 1.09024 0.0819422 -0.819331 0.567434 7 52 50
-0.222097 -0.997316 1.08286 -0.193369 -0.756253 0.625052 7 53 50
-0.215388 -0.981519 1.08846 0.00322649 -0.599896 0.800071 7 52 50
-0.198922 -0.992108 1.08657 0.110986 -0.734688 0.669265 7 53 50
-0.179721 -0.983248 1.09448 -0.352872 -0.9198 -0.171606 7 52 50
-0.12463 -1.03895 1.09098 0.222227 -0.974989 0.00334886 7 53 50
-0.113573 -1.0206 1.08704 -0.0228667 -0.916479 0.399429 7 53 50
-0.0932105 -1.01715 1.09788 -0.14039 -0.896051 0.421169 7 53 51
-0.0262274 -1.01513 1.08279 0.25707 -0.749871 0.609597 7 52 51
0.0516197 -1.00988 1.09381 -0.0349832 -0.995905 0.0833659 7 51 51
0.0704361 -0.996568 1.09688 0.2823 -0.710344 0.644762 7 51 52
0.186572 -0.985613 1.08946 -0.0165453 -0.964261 0.264436 6 50 53
0.223617 -0.990201 1.09278 0.678987 -0.693091 0.242077 6 49 54
0.43005 -0.914386 1.08621 0.65176 -0.75836 -0.00996765 5 41 54
0.451119 -0.917544 1.07428 -0.10535 -0.985981 0.129396 5 42 54
0.514684 -0.93646 1.07347 0.47229 -0.839054 0.270057 6 44 54
0.544065 -0.898751 1.06249 0.25 -0.602269 0.758137 6 45 54
0.591087 -0.854886 1.06219 -0.0934872 -0.40409 0.90993 6 47 54
0.754829 -0.718341 1.03622 0.353312 -0.934731 -0.0380641 7 51 54
0.752389 -0.744172 1.0364 -0.0381888 -0.978819 -0.201132 7 52 54
0.788311 -0.724446 1.03324 0.348659 -0.937125 0.0153013 7 53 53
0.804783 -0.705705 1.03529 0.80114 -0.597504 -0.0341092 7 53 53
0.872768 -0.666318 1.03235 0.438536 -0.577248 0.688819 7 53 52
0.874127 -0.651115 1.03441 0.505111 -0.587266 0.632441 7 53 52
1.07102 -0.390814 0.978662 0.628172 -0.777316 0.0343374 6 50 53
-0.797593 -0.732927 1.02906 -0.682162 -0.564923 0.464239 5 44 52
-0.735546 -0.798568 1.04142 0.331669 -0.707391 0.624174 5 42 51
-0.620795 -0.845606 1.04212 0.504478 -0.334877 0.795839 6 47 52
-0.572197 -0.87454 1.05098 -0.146552 -0.954316 0.260391 7 48 53
-0.480414 -0.932481 1.06493 0.362173 -0.681789 0.635605 6 51 51
-0.460405 -0.950214 1.0663 -0.234258 -0.884503 0.403456 7 51 50
-0.44072 -0.956088 1.05415 0.211012 -0.559903 0.801238 7 51 50
-0.441402 -0.937801 1.0675 -0.237604 -0.758222 0.607161 7 51 51
-0.426455 -0.955133 1.06016 -0.161171 -0.675737 0.719307 7 51 50
-0.321398 -0.966419 1.06782 -0.522374 -0.655599 0.545267 7 52 50
-0.223683 -1.01189 1.06842 -0.448157 -0.405023 0.796939 8 54 50
-0.205618 -1.00716 1.07701 0.190356 -0.413266 0.890492 8 54 50
-0.203875 -1.00747 1.07791 0.174947 -0.791636 0.58541 8 54 50
-0.184952 -1.00635 1.06188 0.108542 -0.990613 0.0830977 8 55 50
-0.165645 -1.00861 1.07665 -0.661285 -0.746754 -0.071141 8 54 50
-0.135186 -1.03126 1.06847 -0.500899 -0.863187 -0.0633077 8 55 49
-0.112866 -1.0288 1.06576 -0.0704533 -0.912997 0.401837 8 55 50
-0.092129 -1.02415 1.07659 -0.216597 -0.946014 -0.241129 8 54 51
-0.0750438 -1.04615 1.07448 -0.376405 -0.773778 0.509497 8 54 50
-0.0550654 -1.03218 1.08178 -0.0946174 -0.709678 0.698144 7 53 51
-0.0373896 -1.03854 1.0724 0.138673 -0.762965 0.631391 8 54 51
0.0480103 -1.0317 1.06285 0.346315 -0.591645 0.728026 7 53 51
0.138968 -1.01733 1.07233 0.16781 -0.969761 0.17721 7 51 52
0.17062 -1.00429 1.0768 0.135037 -0.98562 0.101574 6 51 52
0.210534 -1.01216 1.06253 -0.463665 -0.859022 0.217013 6 50 52
0.218578 -1.00133 1.07344 -0.452628 -0.841246 0.295689 6 50 53
0.244105 -0.999577 1.07635 0.1159 -0.664676 0.738088 6 49 54
0.360195 -0.989656 1.07456 0.289079 -0.917436 0.273394 6 46 54
0.37692 -1.00532 1.06483 0.566412 -0.795818 0.21413 6 46 54
0.559677 -0.899794 1.04508 0.796343 -0.521718 0.306018 6 47 55
0.563284 -0.886081 1.05538 0.570953 -0.804455 -0.163905 6 46 55
0.60754 -0.862144 1.03296 0.744085 -0.618003 -0.253792 6 49 55
0.62755 -0.841648 1.03351 0.498039 -0.705462 0.504261 6 49 54
0.631321 -0.853747 1.03641 0.618966 -0.768256 -0.163287 6 49 54
0.694373 -0.806157 1.04519 0.644889 -0.510313 0.568945 6 50 53
0.87117 -0.679757 1.00532 0.494751 -0.744219 0.448732 8 54 51
0.879841 -0.655439 1.00892 0.438453 -0.588849 0.678982 8 54 51
1.08148 -0.384013 0.957438 0.599239 -0.797713 0.0675748 6 51 53
-0.798188 -0.748287 1.01225 0.240248 -0.929377 0.280248 5 43 52
-0.736527 -0.816688 1.02338 0.368319 -0.642954 0.671529 5 43 52
-0.710387 -0.851622 1.00823 -0.74836 -0.644776 0.155636 5 46 53
-0.690356 -0.846804 1.01916 -0.138657 -0.810426 0.569196 5 45 52
-0.653951 -0.902502 1.02336 0.0978157 -0.980905 0.168099 6 46 52
-0.615232 -0.862105 1.02382 -0.116634 -0.988964 0.0913561 6 48 52
-0.513447 -0.951264 1.02898 0.46497 -0.826183 0.318158 7 51 50
-0.405375 -0.987685 1.0373 -0.462189 -0.501817 0.731137 8 54 50
-0.387864 -0.979506 1.04767 -0.344716 -0.938013 0.0360777 7 53 50
-0.38847 -1.00404 1.03528 -0.124711 -0.591586 0.796538 8 55 49
-0.185464 -1.01022 1.03871 -0.423883 -0.901213 0.0902152 8 56 49
-0.123092 -1.04288 1.04705 -0.434022 -0.369742 0.821532 8 56 49
-0.0557524 -1.04554 1.06223 0.225467 -0.926017 0.30275 8 55 50
-0.00864972 -1.04774 1.05091 0.327994 -0.622241 0.7108 8 54 50
0.0092804 -1.05298 1.05389 -0.135202 -0.594787 0.792432 8 54 50
0.0286695 -1.04537 1.06201 0.353773 -0.579177 0.734437 7 53 50
0.0733546 -1.05681 1.06439 0.255332 -0.666329 0.700579 7 53 51
0.600638 -0.902097 1.01806 0.80865 -0.528422 0.258566 6 50 54
0.595501 -0.881183 1.03347 0.712314 -0.472688 0.51882 6 49 54
0.638678 -0.845535 1.01568 0.752353 -0.65725 0.0445756 6 51 53
0.823671 -0.716259 0.996632 0.426936 -0.519621 0.740081 8 54 51
0.85902 -0.688588 0.985937 0.555539 -0.528151 0.642209 8 55 51
0.871206 -0.696239 0.993429 0.780622 -0.615878 0.106414 7 55 51
0.890927 -0.68324 1.00115 0.771427 -0.634575 -0.0470631 8 55 51
0.90167 -0.676817 0.98504 0.296055 -0.953923 0.0488049 8 56 50
0.905034 -0.659394 0.993735 0.098849 -0.543036 0.833871 8 55 51
0.983628 -0.573749 0.965462 0.526226 -0.778771 0.34147 8 56 51
-0.813389 -0.808594 0.97777 -0.629106 -0.728263 0.271769 5 43 52
-0.811296 -0.76376 0.986192 -0.0843111 -0.741533 0.665598 5 43 52
-0.77616 -0.830761 0.992408 0.271329 -0.944824 0.183545 5 43 52
-0.743265 -0.844099 0.998573 -0.243177 -0.922591 0.299485 5 43 52
-0.563607 -0.923931 1.00886 -0.234586 -0.889117 0.392988 7 51 51
-0.502454 -0.976027 1.01781 -0.214499 -0.896938 -0.386642 7 53 50
-0.513436 -0.961066 1.0078 -0.267036 -0.874271 0.40539 7 52 50
-0.40542 -1.00619 1.0236 -0.235732 -0.602362 0.762621 8 55 49
0.0612778 -1.06695 1.04304 0.183752 -0.953759 0.237863 8 54 51
0.558795 -0.943577 1.00782 0.317811 -0.598629 0.735282 6 50 54
0.574795 -0.920733 1.00449 0.674107 -0.50743 0.536745 6 50 54
0.586389 -0.903523 1.01508 0.760812 -0.64867 -0.0198184 6 50 54
0.61824 -0.934009 1.00354 0.719874 -0.539896 0.436228 7 52 53
0.625166 -0.902551 1.00196 0.466026 -0.858927 0.212282 7 52 53
0.747633 -0.816395 0.987166 0.446066 -0.526768 0.723562 8 54 51
0.759202 -0.798048 0.988155 0.448066 -0.530706 0.719436 8 54 51
0.811576 -0.740364 0.977581 0.410019 -0.504655 0.759742 8 55 51
0.952374 -0.63608 0.956421 0.544646 -0.81958 0.177905 9 57 50
-1.00755 -0.606223 0.925488 -0.722656 -0.617495 0.310594 6 50 49
-0.823053 -0.809207 0.963523 0.216465 -0.727111 0.651501 5 43 52
-0.760669 -0.877453 0.972865 -0.671825 -0.700679 0.24021 5 45 53
-0.743349 -0.861862 0.984214 0.1197 -0.987244 0.104987 5 44 52
-0.723622 -0.871958 0.978683 0.183847 -0.977568 0.102771 5 45 52
-0.682773 -0.894854 0.97141 0.0202949 -0.996081 0.0860882 6 47 52
-0.682727 -0.894914 0.971423 0.0288205 -0.996534 0.0780319 6 47 52
-0.64641 -0.905101 0.972801 -0.060841 -0.911225 0.407391 6 49 51
-0.613286 -0.91954 0.974417 -0.170579 -0.911924 0.373227 6 50 51
-0.584275 -0.924438 0.99603 -0.173426 -0.921876 0.346508 7 51 51
-0.574611 -0.969428 0.991343 -0.526881 -0.639083 0.560329 7 51 50
-0.554486 -0.977213 0.985149 0.408286 -0.705213 0.579635 7 52 50
-0.553447 -0.964971 1.00469 -0.343075 -0.780194 0.523065 7 51 50
-0.460965 -0.994952 0.995421 -0.169477 -0.811065 0.559867 8 55 49
-0.440524 -1.00187 1.0105 0.193243 -0.95921 0.206333 8 55 49
0.434868 -1.02158 1.00389 0.40838 -0.402314 0.819371 6 46 54
0.53343 -0.975075 0.998704 0.188181 -0.680857 0.707829 6 49 54
0.57079 -0.958347 0.989745 0.397239 -0.394553 0.82857 7 51 53
0.582907 -0.941627 0.999177 0.177538 -0.424655 0.887777 6 51 53
0.628571 -0.917906 0.982058 0.555473 -0.779463 0.289631 7 53 51
0.728546 -0.899453 0.979788 0.407303 -0.899544 0.157875 8 55 51
0.744777 -0.873031 0.981924 0.244972 -0.955861 -0.162231 8 55 51
0.75741 -0.821758 0.970298 0.378027 -0.397171 0.836272 8 55 51
0.772343 -0.801987 0.973022 0.460525 -0.535306 0.708071 8 55 51
0.78593 -0.789159 0.972826 0.186479 -0.741077 0.645005 8 55 51
-1.04388 -0.558937 0.905461 -0.250705 -0.804497 0.538454 7 52 49
-0.83897 -0.825003 0.937995 -0.616316 -0.774095 0.144679 5 41 52
-0.816785 -0.820098 0.940832 0.0912016 -0.992797 0.0777 5 41 52
-0.74331 -0.864516 0.959811 -0.263135 -0.911378 0.316464 5 45 53
-0.737764 -0.878755 0.952705 -0.18653 -0.960794 0.20514 5 46 53
-0.641143 -0.918891 0.95574 0.22252 -0.826031 0.51784 6 50 51
-0.637688 -0.936828 0.969171 0.203639 -0.736094 0.645521 6 50 51
-0.565111 -0.999652 0.973132 -0.132525 -0.925496 0.354817 7 52 50
-0.545914 -0.997792 0.984072 -0.0978767 -0.951821 0.290616 7 53 50
-0.524834 -1.00577 0.976705 0.0152408 -0.772614 0.634694 8 54 50
-0.514428 -0.994877 0.977748 -0.149837 -0.778971 0.608894 8 54 50
-0.423721 -1.04521 0.993973 0.361926 -0.931641 0.0324663 9 56 49
-0.317591 -1.05793 0.981122 -0.12307 -0.605868 0.785988 10 57 49
-0.170191 -1.07411 0.994544 0.0337829 -0.994778 -0.0963129 10 57 48
0.0321636 -1.13218 1.00387 -0.253572 -0.869468 0.423941 9 56 49
0.356297 -1.07667 0.986567 -0.045056 -0.334691 0.94125 6 48 55
0.44697 -1.04002 0.994709 0.0782646 -0.545974 0.834139 6 47 55
0.446882 -1.02048 0.990031 0.125877 -0.596023 0.793039 6 47 55
0.484879 -1.01835 0.985241 0.0974352 -0.436425 0.89445 6 49 54
0.518531 -1.02886 0.977331 0.531358 -0.752172 0.389738 6 50 53
0.554737 -0.982041 0.970728 0.653286 -0.647215 0.392849 7 52 53
0.642633 -0.920103 0.972282 -0.14188 -0.871652 0.46914 7 54 51
0.667524 -0.927097 0.96076 0.667921 -0.506624 0.545174 8 54 51
0.727564 -0.89877 0.954253 0.0295248 -0.999504 0.0109315 7 56 50
0.741353 -0.890496 0.960965 -0.160602 -0.987014 0.00320849 7 56 50
0.762663 -0.845377 0.959483 0.502525 -0.421399 0.754912 8 56 50
0.768902 -0.865487 0.946144 0.639363 -0.761473 0.106646 9 57 50
-0.778884 -0.863196 0.926481 0.205208 -0.976953 0.0587635 5 43 51
-0.756284 -0.866175 0.941136 0.0366943 -0.875049 0.482641 5 45 52
-0.759611 -0.873116 0.919848 -0.15477 -0.710124 0.686855 5 45 52
-0.648951 -0.944728 0.939332 0.184322 -0.944789 0.270923 6 50 51
-0.631776 -0.938675 0.947526 -0.063288 -0.977565 0.200902 6 50 51
-0.593458 -0.995588 0.952373 -0.155067 -0.915285 0.371762 7 51 50
-0.553387 -0.999303 0.954117 -0.147508 -0.94803 0.281924 7 53 50
-0.52108 -1.02275 0.963268 -0.0524623 -0.944021 0.325688 8 55 49
-0.509283 -1.06111 0.960772 -0.639279 -0.742306 0.200758 8 55 49
-0.263205 -1.07756 0.965577 -0.165069 -0.857313 0.487613 9 58 47
-0.26881 -1.06247 0.97119 -0.103337 -0.904194 0.414434 10 57 48
0.124733 -1.12456 0.97116 -0.0927905 -0.480074 0.872307 8 54 50
0.356249 -1.09066 0.964413 -0.208412 -0.823022 0.528393 6 49 55
0.503725 -1.03168 0.971681 0.657038 -0.697265 0.286569 6 50 53
0.490097 -1.07487 0.969976 0.374282 -0.917636 0.133633 6 49 54
0.537188 -1.03055 0.963765 0.653932 -0.641114 0.40168 7 51 53
0.559311 -0.996856 0.954902 0.587016 -0.602591 0.540645 7 53 53
0.617841 -0.977856 0.94798 -0.371693 -0.461235 0.805671 8 54 51
0.654264 -0.932613 0.946591 0.0444108 -0.836399 0.546319 8 54 51
0.669625 -0.941824 0.940592 0.0529104 -0.728694 0.682793 7 56 50
0.683907 -0.927567 0.946046 0.673485 -0.482053 0.560396 7 56 51
0.723959 -0.911464 0.938698 0.650168 -0.739892 0.172747 9 57 50
0.79025 -0.861475 0.931774 0.653086 -0.751064 -0.0968649 9 57 49
0.822045 -0.839325 0.920369 0.0793262 -0.711263 0.698436 9 59 48
0.901748 -0.758034 0.911949 0.710708 -0.688904 0.142495 9 59 48
-0.96346 -0.725345 0.879526 -0.675559 -0.568098 0.469984 5 46 52
-0.834594 -0.868152 0.904578 -0.314666 -0.930982 0.185087 5 41 52
-0.81039 -0.891496 0.922002 -0.407982 -0.873316 0.266214 5 43 52
-0.762445 -0.887216 0.900298 0.251946 -0.959868 0.12319 5 46 53
-0.745404 -0.895352 0.917424 0.00847778 -0.535383 0.844567 6 46 53
-0.718924 -0.95005 0.914258 0.080977 -0.864508 0.496054 6 46 52
-0.693499 -0.95109 0.921234 -0.237144 -0.520544 0.820242 6 49 52
-0.490763 -1.0597 0.944001 0.263297 -0.744316 0.613733 8 55 49
-0.357775 -1.07278 0.956082 -0.38655 -0.82869 0.404785 10 57 48
-0.335418 -1.07851 0.95375 -0.614812 -0.781522 0.10597 9 57 47
0.337997 -1.10047 0.960104 -0.157017 -0.512899 0.843967 6 50 54
0.481216 -1.05765 0.943088 0.345346 -0.86892 0.354563 6 50 54
0.476721 -1.07472 0.938073 0.247153 -0.83892 0.484901 6 50 54
0.526656 -1.0241 0.930796 -0.042513 -0.994694 0.0936818 7 53 53
0.504899 -1.05705 0.932491 -0.140055 -0.9741 0.177519 7 51 53
0.655175 -0.948447 0.930904 0.64216 -0.609833 0.464471 8 55 51
0.651298 -0.95996 0.915479 0.321156 -0.372336 0.870761 7 56 50
0.670627 -0.948902 0.91866 0.175529 -0.902248 0.393876 8 56 50
0.688402 -0.94461 0.921313 0.218824 -0.531147 0.818535 9 56 50
0.721656 -0.928969 0.926838 0.525682 -0.847318 0.0755659 10 57 50
0.740333 -0.908607 0.918718 0.739991 -0.638211 0.212368 9 57 49
1.03142 -0.599448 0.861804 0.197433 -0.921116 0.335509 9 59 48
-0.973696 -0.721873 0.861216 -0.721981 -0.682499 0.113747 5 45 52
-0.874806 -0.83525 0.887269 -0.47419 -0.782583 0.403369 5 41 53
-0.855026 -0.853521 0.880386 -0.621113 -0.604316 0.499019 4 40 52
-0.834747 -0.875229 0.880575 -0.780789 -0.550475 0.295543 5 41 52
-0.821425 -0.880665 0.897797 -0.331097 -0.910037 0.249415 5 42 52
-0.774305 -0.925581 0.887633 -0.308338 -0.838747 0.44881 5 45 53
-0.788009 -0.888864 0.88718 -0.162733 -0.849973 0.501062 5 43 52
-0.771385 -0.902105 0.900976 -0.0232736 -0.942791 0.332571 5 45 52
-0.736917 -0.941745 0.899414 -0.587244 -0.75654 0.287734 6 47 53
-0.686795 -0.971878 0.903651 -0.347622 -0.843077 0.410342 6 49 52
-0.657523 -0.940616 0.907495 -0.111614 -0.96476 0.238285 6 51 51
0.132665 -1.14578 0.947864 0.320546 -0.881701 0.3462 8 54 50
0.488267 -1.06953 0.923679 0.808079 -0.531697 0.253585 6 50 53
0.483598 -1.07006 0.922484 0.627563 -0.541983 0.558945 6 50 53
0.505959 -1.05872 0.931436 0.0948422 -0.995086 -0.0284324 7 52 53
0.707931 -0.947714 0.910758 0.225636 -0.388505 0.893394 9 57 49
-0.988194 -0.714501 0.841206 -0.504533 -0.608789 0.612227 5 45 52
-0.965642 -0.756984 0.837141 -0.576063 -0.783114 0.234275 5 43 52
-0.972653 -0.737719 0.846114 -0.514753 -0.831573 -0.208604 5 43 52
-0.827917 -0.951331 0.870555 -0.163248 -0.348266 0.923072 5 41 53
-0.763854 -0.936992 0.86529 -0.597361 -0.470262 0.649626 5 45 53
-0.710285 -0.976358 0.871989 -0.448299 -0.56148 0.695535 7 48 54
-0.705337 -0.966076 0.890276 -0.139068 -0.980759 0.137011 7 48 53
-0.698391 -0.981662 0.888229 -0.161967 -0.985837 -0.0435128 6 49 53
-0.32448 -1.11504 0.910704 -0.289471 -0.692984 0.660288 8 58 47
-0.305221 -1.13086 0.912528 -0.188656 -0.849026 0.493522 8 58 47
-0.253961 -1.12159 0.904297 0.0936871 -0.488454 0.867545 8 58 47
0.335322 -1.12211 0.917486 0.523807 -0.817614 0.239026 6 50 53
0.34975 -1.13515 0.908376 0.779495 -0.56008 0.280531 6 49 54
0.520261 -1.06408 0.892595 0.369096 -0.611756 0.699659 7 53 53
0.655835 -0.996265 0.877044 -0.318015 -0.831822 0.454906 9 57 50
0.699044 -0.98621 0.890987 -0.0406974 -0.992063 0.118977 9 57 49
0.763382 -0.943425 0.872207 0.0135036 -0.937729 0.347104 9 59 48
-1.01645 -0.73674 0.802736 -0.740162 -0.525176 0.419941 5 42 52
-1.00762 -0.754672 0.824866 -0.505043 -0.759251 0.41045 5 42 52
-1.00868 -0.723597 0.81879 -0.658383 -0.641194 0.39421 5 43 52
-0.779827 -0.947271 0.853264 -0.592917 -0.44176 0.673273 5 44 53
-0.761597 -0.968283 0.849054 -0.626015 -0.586844 0.513537 5 46 53
-0.767687 -0.953135 0.850859 -0.797073 -0.544022 0.262135 5 45 53
-0.748246 -0.952465 0.862382 -0.552806 -0.438848 0.708391 6 47 53
-0.648866 -1.01819 0.87494 -0.279555 -0.764905 0.580318 7 51 52
-0.624415 -1.04486 0.865345 -0.464569 -0.879761 -0.100979 7 51 51
-0.427459 -1.12335 0.88403 -0.591418 -0.426871 0.68411 9 56 48
-0.391823 -1.1257 0.889292 -0.0794282 -0.996513 0.0255499 10 57 49
-0.281658 -1.13927 0.898468 0.0914577 -0.526593 0.845184 8 58 47
-0.15774 -1.19 0.892536 -0.139894 -0.982293 0.124622 9 57 48
0.327424 -1.15535 0.890735 0.571736 -0.721286 0.39098 6 50 53
0.345147 -1.1404 0.889741 0.080374 -0.742463 0.665048 6 49 54
0.49102 -1.07252 0.885808 -0.456762 -0.616262 0.641553 6 51 53
0.520151 -1.08131 0.876772 -0.0348703 -0.710464 0.702869 7 53 52
0.52302 -1.10374 0.874845 0.203066 -0.947191 0.24818 7 53 52
0.540428 -1.09069 0.87092 0.375056 -0.607375 0.700306 7 53 51
0.562526 -1.06597 0.877106 -0.116615 -0.928546 0.352424 8 54 51
0.698669 -0.988091 0.865022 0.493608 -0.86592 0.0808258 8 58 49
0.690553 -1.01388 0.857255 -0.341542 -0.795436 0.500631 8 58 49
-1.11586 -0.61701 0.759095 -0.496131 -0.649546 0.576146 5 43 52
-1.05459 -0.739965 0.780866 -0.628342 -0.621737 0.467578 5 41 52
-1.00279 -0.755089 0.802594 -0.603334 -0.680964 0.415062 5 41 52
-0.999888 -0.769059 0.784288 -0.502826 -0.759512 0.412683 5 40 52
-0.969258 -0.77215 0.799262 -0.516658 -0.777347 0.358882 5 40 52
-0.810128 -0.963869 0.827988 -0.00500074 -0.748545 0.663066 5 42 52
-0.783189 -0.967996 0.839783 0.259499 -0.552619 0.792005 5 43 52
-0.761203 -0.983353 0.832317 -0.76701 -0.512685 0.38581 5 45 53
-0.748193 -0.964029 0.844896 -0.610878 -0.729437 0.307815 6 47 53
-0.716917 -1.00908 0.834476 -0.518544 -0.838612 0.16686 6 47 53
-0.718398 -0.993647 0.844723 -0.645785 -0.453778 0.614041 6 47 53
-0.698124 -1.00604 0.844587 -0.0952325 -0.959916 0.263615 7 48 54
-0.696414 -1.01064 0.853836 -0.536698 -0.688253 0.488122 7 48 53
-0.677376 -1.02221 0.845653 -0.38097 -0.87805 0.289637 6 49 52
-0.671977 -1.04131 0.858091 -0.592081 -0.432923 0.679719 6 50 52
-0.636216 -1.04455 0.849962 -0.399932 -0.627139 0.668394 6 51 51
-0.349061 -1.16401 0.876555 0.274533 -0.695256 0.664267 10 57 49
-0.329492 -1.15242 0.879928 -0.16257 -0.547452 0.820894 9 58 48
-0.255199 -1.16618 0.878925 -0.359878 -0.912995 0.192168 8 58 47
-0.240647 -1.18482 0.879506 -0.773607 -0.616625 0.145965 9 58 48
-0.184037 -1.19331 0.887228 -0.244352 -0.824353 0.510621 9 57 48
0.0144821 -1.19363 0.880744 -0.348622 -0.849684 0.395601 9 56 50
0.308334 -1.17293 0.868578 0.592501 -0.643824 0.484183 6 50 53
0.325436 -1.1571 0.868498 0.362855 -0.921933 -0.135556 6 50 54
0.345654 -1.15217 0.882979 0.633741 -0.671729 0.383605 6 49 55
0.446552 -1.13 0.859877 0.348666 -0.865605 0.359388 6 49 54
0.48923 -1.13181 0.856932 0.552825 -0.816137 0.168238 6 51 53
0.500304 -1.08906 0.868455 0.158552 -0.334787 0.928859 7 52 53
0.624196 -1.03547 0.858939 -0.414453 -0.412974 0.810975 7 55 50
0.644228 -1.04486 0.853602 -0.106797 -0.818797 0.564062 9 56 50
0.663849 -1.02598 0.851757 0.512021 -0.524029 0.680609 10 57 50
1.18298 -0.556783 0.762776 0.287053 -0.670241 0.684381 7 53 51
-1.11732 -0.659038 0.740246 -0.699444 -0.597842 0.391616 4 41 52
-0.772591 -0.978357 0.813091 -0.60682 -0.653108 0.453012 5 43 52
-0.763399 -0.996559 0.816432 -0.0912484 -0.491289 0.866204 5 44 52
-0.757819 -1.01921 0.814957 -0.595861 -0.801854 0.0444919 5 45 53
-0.735405 -1.00449 0.819278 -0.704644 -0.687896 0.173997 6 46 53
-0.695914 -1.02075 0.833219 -0.451158 -0.787979 0.418981 7 48 54
-0.680564 -1.03568 0.830409 -0.348109 -0.647652 0.677766 6 49 53
-0.658093 -1.04701 0.832318 -0.787117 -0.517417 0.335747 6 49 53
-0.520376 -1.12039 0.832669 -0.777427 -0.481629 0.404526 8 54 51
-0.504534 -1.11371 0.844086 -0.683046 -0.598846 0.418128 8 54 50
-0.448659 -1.14572 0.849302 -0.126228 -0.98766 -0.0927069 8 56 50
-0.377744 -1.16562 0.845863 -0.342105 -0.761194 0.550952 9 56 49
-0.280039 -1.18637 0.86107 -0.670848 -0.4586 0.582794 9 57 49
-0.223343 -1.19698 0.865121 -0.772226 -0.619119 0.142686 9 57 49
-0.0827119 -1.20455 0.856677 -0.0810959 -0.854406 0.513239 9 57 49
-0.0594244 -1.21755 0.853447 0.338862 -0.647756 0.682338 9 56 50
-0.0277254 -1.19969 0.859312 -0.29792 -0.951788 -0.0731041 9 56 50
0.0144477 -1.21624 0.872256 -0.498165 -0.784348 0.369635 8 56 50
0.0533155 -1.2176 0.863626 0.543821 -0.358551 0.758749 8 55 50
0.284053 -1.20413 0.85143 0.729684 -0.677902 0.089506 6 50 53
0.300707 -1.18557 0.850716 0.712659 -0.698069 0.0694033 6 50 54
0.320059 -1.18152 0.856312 0.638501 -0.696598 0.327211 6 49 54
0.465334 -1.12291 0.842843 -0.447134 -0.889972 0.0895629 6 50 53
0.490375 -1.1552 0.839483 0.0289794 -0.997466 0.0649776 6 51 53
0.672705 -1.0651 0.823514 0.363428 -0.912698 -0.186823 10 57 50
1.07478 -0.687393 0.752918 0.0572122 -0.516071 0.854633 9 58 48
-1.08068 -0.736448 0.73587 0.0342507 -0.86964 0.492498 5 39 51
-1.06176 -0.746735 0.734761 -0.522818 -0.792043 0.315167 5 38 52
-0.831755 -0.960445 0.79737 0.00258186 -0.833431 0.552618 5 40 52
-0.813174 -0.963645 0.788359 0.0426796 -0.978708 0.200772 5 41 53
-0.799833 -0.971439 0.799312 -0.647057 -0.662025 0.378206 5 42 53
-0.771023 -0.993269 0.79538 -0.263755 -0.963393 -0.0480326 5 43 52
-0.727181 -1.01594 0.807355 0.284419 -0.764635 0.578307 6 46 53
-0.679046 -1.05099 0.81225 -0.0709662 -0.997342 0.0165193 7 48 54
-0.651056 -1.07685 0.803453 -0.61234 -0.5732 0.544501 6 49 54
-0.619365 -1.0958 0.810843 -0.372463 -0.915323 0.153149 6 50 52
-0.557494 -1.13431 0.814117 0.0167448 -0.991814 -0.126588 7 52 52
-0.522009 -1.13812 0.816396 -0.623084 -0.457128 0.634666 7 53 51
-0.499045 -1.15433 0.835928 -0.43356 -0.370093 0.821618 8 54 51
-0.359329 -1.17696 0.836774 -0.0381944 -0.955524 0.292431 9 56 49
-0.308681 -1.18507 0.837307 -0.591603 -0.45774 0.663687 10 57 49
-0.182955 -1.21325 0.838209 -0.144081 -0.718278 0.680674 9 56 49
-0.102437 -1.20845 0.844313 -0.196344 -0.967105 0.161734 9 56 50
-0.0786351 -1.22112 0.841463 -0.0936086 -0.770017 0.631119 8 56 50
-0.0629838 -1.21257 0.849079 -0.0415022 -0.911407 0.409408 9 56 50
-0.0471702 -1.20977 0.849865 -0.232154 -0.600118 0.765482 9 56 50
0.00328952 -1.23828 0.835092 -0.248862 -0.610687 0.751751 8 54 51
0.0349334 -1.22645 0.852822 0.340261 -0.936652 0.0830985 8 55 50
0.0526298 -1.20967 0.849668 -0.466886 -0.815313 0.342466 8 54 50
0.547526 -1.12119 0.819195 0.0136832 -0.985648 0.168259 7 53 52
0.671767 -1.06529 0.798429 0.149259 -0.967975 0.201856 8 56 50
0.690815 -1.05684 0.807266 -0.237961 -0.689795 0.683782 9 57 51
0.803209 -0.99295 0.791952 0.277464 -0.955566 -0.0995403 9 59 48
0.98911 -0.801655 0.745353 0.465424 -0.561984 0.683779 9 59 48
-1.26753 -0.426473 0.652462 -0.46889 -0.460883 0.753478 6 47 51
-0.993826 -0.851975 0.748118 -0.493373 -0.862759 -0.110589 5 39 52
-0.926489 -0.905526 0.741555 0.0858127 -0.934111 0.346516 5 39 52
-0.86652 -0.934714 0.760677 -0.241147 -0.673491 0.698755 4 40 52
-0.832044 -0.962995 0.77591 -0.226796 -0.919199 0.321926 5 40 52
-0.747639 -1.02592 0.784015 -0.0912206 -0.550687 0.829712 5 43 52
-0.723543 -1.06248 0.785574 -0.207019 -0.602369 0.770905 5 44 53
-0.728595 -1.03592 0.778645 0.0384674 -0.471458 0.881049 5 45 52
-0.697775 -1.05562 0.792383 0.149991 -0.319254 0.935724 6 46 52
-0.632767 -1.09059 0.794795 -0.394457 -0.913263 0.101754 6 49 53
-0.620483 -1.10183 0.789367 -0.377352 -0.883461 0.277673 6 50 53
-0.587387 -1.11585 0.796203 -0.245801 -0.886186 0.392754 6 50 52
-0.60221 -1.10618 0.80235 -0.38124 -0.893376 0.237773 6 50 52
-0.568718 -1.12746 0.794864 -0.682756 -0.623961 0.380153 7 51 52
-0.54844 -1.12409 0.804489 -0.0345115 -0.993428 0.109129 7 52 52
-0.309207 -1.20091 0.817246 0.262785 -0.717593 0.644984 8 56 50
-0.291395 -1.22056 0.816402 -0.589411 -0.420328 0.689869 8 55 50
-0.181261 -1.22378 0.817458 -0.215903 -0.971637 0.0964794 7 56 50
-0.120002 -1.25355 0.825827 0.692276 -0.71609 0.0892721 8 55 50
-0.0354645 -1.22813 0.823308 -0.287736 -0.920739 0.263528 8 54 50
-0.0274975 -1.23222 0.821623 0.158743 -0.844113 0.512128 8 54 51
0.169325 -1.21651 0.807634 0.18419 -0.757287 0.62657 6 51 53
0.210769 -1.22819 0.811942 -0.444719 -0.411499 0.795546 6 50 54
0.382306 -1.19113 0.81588 -0.455979 -0.644393 0.613873 6 46 54
0.369126 -1.15654 0.807158 0.141758 -0.773898 0.617241 6 48 54
0.536641 -1.15296 0.80995 -0.0356075 -0.387372 0.921235 7 53 53
0.781818 -1.00234 0.780834 0.113102 -0.993428 -0.0175585 8 58 48
1.04882 -0.786361 0.725989 0.469387 -0.853338 -0.226915 9 58 49
-0.908908 -0.922878 0.740991 -0.558289 -0.529881 0.638389 5 39 53
-0.77279 -1.03863 0.749962 -0.351327 -0.650408 0.673452 5 41 53
-0.700029 -1.09476 0.763748 -0.0922307 -0.574818 0.813067 5 44 52
-0.689893 -1.0851 0.757746 -0.0793805 -0.428246 0.900169 5 45 53
-0.633232 -1.09545 0.772116 0.110105 -0.980952 0.160033 7 48 54
-0.538455 -1.13136 0.774308 -0.607122 -0.591254 0.530868 7 51 52
-0.530888 -1.15898 0.781946 -0.402018 -0.5584 0.725652 7 51 52
-0.514881 -1.15177 0.788445 -0.638902 -0.504719 0.580571 7 52 51
-0.360291 -1.20353 0.795738 -0.394553 -0.484018 0.78106 8 54 51
-0.305337 -1.24894 0.792561 -0.468522 -0.646828 0.601748 8 54 51
-0.290088 -1.24187 0.803668 0.282807 -0.615008 0.736061 8 54 51
-0.271616 -1.22738 0.805565 -0.558902 -0.382427 0.735784 8 55 50
-0.181031 -1.23561 0.79598 -0.682531 -0.662301 0.309045 8 54 51
-0.160853 -1.24892 0.810311 -0.596892 -0.562777 0.571841 8 54 51
0.0472788 -1.25492 0.815347 0.0217121 -0.415333 0.90941 7 53 51
0.0817433 -1.24461 0.812083 0.0370983 -0.425922 0.903999 7 53 52
0.102088 -1.25379 0.797365 0.54328 -0.719084 0.43332 6 51 52
0.148324 -1.21642 0.795934 0.138961 -0.789985 0.597171 7 52 53
0.196345 -1.24173 0.807942 -0.389836 -0.425663 0.816602 6 49 54
0.355483 -1.20454 0.794996 0.0744 -0.756449 0.649808 6 46 54
0.527957 -1.1402 0.790177 0.255782 -0.94037 0.224232 7 52 53
0.693763 -1.05995 0.771782 0.395425 -0.74009 0.543973 8 57 51
0.719266 -1.0624 0.760505 0.505844 -0.732751 0.45519 8 56 51
0.760245 -1.03772 0.750215 0.318642 -0.794779 0.51652 9 57 51
0.775891 -1.0148 0.760913 0.529395 -0.759767 0.377484 8 58 49
0.96901 -0.869365 0.716914 0.425092 -0.901038 0.0861864 9 58 50
1.03079 -0.798836 0.713511 0.47755 -0.873646 -0.0932132 8 58 50
1.13031 -0.683886 0.678793 -0.217693 -0.78724 0.576942 8 55 52
1.19439 -0.614615 0.663384 0.379472 -0.589689 0.712929 7 52 53
1.19439 -0.614615 0.663384 0.379472 -0.589689 0.712929 7 52 53
1.24795 -0.512929 0.649257 0.0463796 -0.822509 0.566858 5 47 53
-0.993251 -0.845736 0.699816 -0.00265434 -0.999649 0.0263716 5 40 52
-0.959981 -0.860397 0.692351 0.0104083 -0.827953 0.5607 5 40 52
-0.897577 -0.955209 0.716304 -0.00245409 -0.948011 0.318227 5 38 53
-0.800474 -1.02443 0.732332 -0.629391 -0.613806 0.47656 5 41 53
-0.790716 -1.02622 0.723777 -0.626977 -0.598743 0.498405 5 41 53
-0.664942 -1.09736 0.741986 0.0909079 -0.858 0.505542 6 46 53
-0.54668 -1.14649 0.760401 -0.239878 -0.727668 0.642618 6 50 53
-0.508223 -1.15934 0.764371 -0.593454 -0.804794 -0.0108611 7 51 52
-0.409209 -1.22272 0.773273 -0.185439 -0.982391 0.0228173 7 53 52
-0.374993 -1.25233 0.78201 -0.132465 -0.71395 0.687552 7 51 52
-0.333351 -1.23172 0.780641 -0.492283 -0.454277 0.74249 7 53 51
-0.318201 -1.25348 0.777799 -0.642476 -0.6151 0.45703 7 53 51
-0.296143 -1.24099 0.77719 0.456258 -0.824188 0.335474 8 54 51
-0.0800302 -1.25767 0.793696 -0.0826836 -0.459658 0.884239 7 53 51
-0.0610911 -1.24097 0.789085 -0.339013 -0.721502 0.603743 8 54 51
0.00925452 -1.27529 0.777217 -0.164466 -0.331795 0.928904 7 51 53
0.00520181 -1.25673 0.791593 -0.215115 -0.449316 0.867088 7 53 52
0.0181245 -1.26106 0.789154 0.586439 -0.435517 0.682945 7 53 53
0.04727 -1.26095 0.792556 -0.0509917 -0.978993 0.197417 7 53 53
0.106229 -1.254 0.777027 0.0523688 -0.998497 0.0161409 6 50 54
0.125973 -1.25094 0.788188 0.415327 -0.903041 0.109642 6 50 53
0.311576 -1.19903 0.78062 0.327055 -0.334778 0.883719 6 48 54
0.311469 -1.22013 0.767691 0.2661 -0.958842 0.0990636 6 46 54
0.331271 -1.20766 0.772267 0.108942 -0.585413 0.803382 6 46 54
0.350755 -1.22069 0.764878 0.127143 -0.313519 0.941031 6 44 54
0.410994 -1.19253 0.764187 0.66149 -0.554136 0.505335 6 47 54
0.564417 -1.16246 0.75861 0.0598274 -0.975252 0.212847 7 52 53
0.601744 -1.13425 0.759865 0.107961 -0.707895 0.698018 7 53 52
0.678369 -1.10198 0.740892 0.282903 -0.900141 0.331229 9 55 52
0.702093 -1.07433 0.736066 0.191718 -0.851891 0.487367 8 55 51
0.740916 -1.04916 0.743916 0.284845 -0.729826 0.621464 8 57 51
0.742571 -1.05106 0.745008 0.310784 -0.753807 0.578954 8 57 51
0.819081 -0.992247 0.73118 0.272205 -0.743089 0.611329 9 57 51
0.836593 -0.989443 0.720078 -0.337533 -0.530612 0.77751 8 57 51
0.858135 -0.981346 0.711763 0.672664 -0.73428 0.0914169 8 57 51
0.967004 -0.881894 0.69513 0.540834 -0.454962 0.707465 8 57 51
1.00466 -0.841219 0.702866 0.18739 -0.979053 -0.0796305 9 57 51
1.02842 -0.840245 0.691589 0.681501 -0.650203 0.335846 7 56 52
1.17598 -0.665515 0.648984 0.365926 -0.444739 0.817499 7 53 53
1.21244 -0.60085 0.633734 0.444871 -0.579646 0.682716 7 51 55
-1.13095 -0.727495 0.637141 -0.771298 -0.635477 -0.0356008 5 43 52
-1.07332 -0.820744 0.653221 -0.38917 -0.533022 0.751288 5 45 52
-1.06613 -0.803213 0.658696 -0.400494 -0.448243 0.799177 5 43 52
-1.04593 -0.803475 0.670889 -0.738183 -0.661035 0.134606 5 42 52
-0.957982 -0.874021 0.673076 -0.220494 -0.76752 0.60191 5 41 52
-0.962895 -0.855043 0.664495 -0.196657 -0.693561 0.693037 5 40 52
-0.959784 -0.885663 0.673102 -0.0467196 -0.658146 0.75144 5 41 52
-0.888729 -0.971062 0.688437 -0.27739 -0.487697 0.827772 5 41 53
-0.841022 -0.997347 0.713098 0.352607 -0.801034 0.483749 5 39 53
-0.824866 -1.0086 0.702361 0.35301 -0.801502 0.482679 4 40 53
-0.781125 -1.05811 0.716309 -0.677553 -0.714467 0.174522 5 41 53
-0.64614 -1.11211 0.737464 -0.500616 -0.46127 0.732539 6 46 53
-0.620371 -1.1505 0.725836 -0.0495633 -0.596217 0.801292 6 45 53
-0.515812 -1.2098 0.741277 -0.030492 -0.724427 0.688677 6 47 54
-0.473265 -1.19754 0.746706 -0.155599 -0.723388 0.67268 6 50 53
-0.453109 -1.21594 0.762035 -0.155249 -0.720544 0.675807 6 50 53
-0.431602 -1.26513 0.753906 -0.369882 -0.621905 0.690233 6 48 54
-0.427022 -1.2274 0.755645 -0.179669 -0.358999 0.915881 6 50 53
-0.443173 -1.20791 0.75608 -0.0861643 -0.65932 0.746909 7 51 52
-0.435742 -1.19968 0.746224 -0.226495 -0.557353 0.798785 7 51 53
-0.347404 -1.2623 0.751538 -0.604544 -0.717452 0.346105 7 51 53
-0.333849 -1.26434 0.769621 -0.0893858 -0.594943 0.798782 6 51 52
-0.310641 -1.24612 0.763006 -0.23917 -0.714072 0.657951 7 53 51
-0.023611 -1.29939 0.763757 0.350179 -0.699511 0.622945 6 50 54
-0.00164703 -1.27899 0.768561 -0.209901 -0.43266 0.876782 6 51 53
0.0297689 -1.25551 0.754331 0.283592 -0.931665 0.227105 6 51 54
0.0487066 -1.24037 0.762518 0.484491 -0.361126 0.796779 6 51 53
0.0927155 -1.2612 0.770307 0.0114346 -0.99793 -0.0632787 6 50 54
0.137215 -1.27392 0.754896 0.193569 -0.974425 0.114132 6 48 55
0.125883 -1.26791 0.763705 -0.0491957 -0.998472 -0.0251698 6 49 55
0.199001 -1.26186 0.756277 -0.0466716 -0.91937 0.390616 7 47 55
0.253324 -1.2549 0.748772 0.435944 -0.719212 0.541004 6 46 54
0.255679 -1.25255 0.750485 0.216787 -0.878518 0.425688 6 46 54
0.238669 -1.26588 0.752828 0.61136 -0.611324 0.502515 6 46 54
0.269405 -1.26334 0.770338 0.0369011 -0.821369 0.569203 6 45 54
0.318436 -1.23875 0.755737 -0.437377 -0.845421 0.306538 6 44 54
0.31155 -1.22055 0.744247 0.532833 -0.803095 0.266698 6 45 54
0.420608 -1.21796 0.755554 0.0233694 -0.8766 0.480653 6 45 54
0.681223 -1.11593 0.723374 0.156115 -0.804748 0.57272 8 54 52
0.662132 -1.11127 0.733563 0.372459 -0.764327 0.526382 8 54 52
0.690257 -1.10512 0.725051 0.317087 -0.866268 0.386051 8 54 52
0.81817 -1.00823 0.714019 0.142841 -0.669648 0.728813 8 56 51
0.843635 -1.00998 0.70507 -0.36684 -0.667059 0.64843 7 56 52
0.974857 -0.889079 0.675567 0.540928 -0.454497 0.707693 8 55 52
0.966895 -0.910204 0.690195 0.435496 -0.782345 0.445286 7 56 52
1.21644 -0.606478 0.610944 0.559191 -0.541683 0.627603 6 50 55
1.21183 -0.617994 0.617693 0.523482 -0.621004 0.58337 6 51 55
1.19767 -0.633675 0.611558 0.252244 -0.667366 0.700711 6 51 54
-1.1459 -0.697755 0.621501 -0.478386 -0.763613 -0.433638 5 44 52
-1.05322 -0.833372 0.649449 -0.269206 -0.612309 0.743375 5 44 52
