ply
format ascii 1.0
element vertex 721
property float x
property float y
property float z
property float nx
property float ny
property float nz
property uchar diffuse_red
property uchar diffuse_green
property uchar diffuse_blue
end_header
0.364995 -1.43317 0.0938092 0.0397452 -0.822279 0.567695 22 102 107
0.402021 -1.43526 0.0907944 0.602765 -0.780774 0.164517 23 103 106
0.428636 -1.43271 0.095624 0.478792 -0.793428 0.375806 22 102 106
0.433535 -1.41229 0.0826328 0.318332 -0.892931 0.318337 22 102 107
0.496131 -1.40645 0.0846251 0.322748 -0.946376 -0.0143442 22 101 107
0.512651 -1.41081 0.0693777 0.0842338 -0.692885 0.716111 23 103 106
0.53196 -1.39313 0.0739382 0.340184 -0.858802 0.383059 21 101 107
0.549044 -1.38009 0.0807279 0.434409 -0.59769 0.673836 21 99 108
0.588346 -1.35849 0.0700335 0.29683 -0.942645 0.152684 20 98 110
0.588939 -1.35994 0.074287 0.4191 -0.895626 0.149026 20 97 109
0.62526 -1.34482 0.0474972 0.584314 -0.726063 0.362505 20 97 109
0.614134 -1.36179 0.0637299 0.0349595 -0.609058 0.792355 20 98 110
0.679167 -1.32389 0.0526229 0.213825 -0.944856 -0.248046 20 95 109
1.02224 -1.11103 -0.00511703 0.642231 -0.763375 0.0692609 120 121 104
-0.910678 -1.20901 -0.000684019 -0.478466 -0.866067 0.144906 125 127 110
-0.88675 -1.20419 -0.000809584 -0.578579 -0.814765 0.0374894 106 121 108
-0.866125 -1.21699 -0.00591536 -0.448067 -0.593561 0.668522 110 123 109
-0.849898 -1.23235 -0.00192796 -0.463659 -0.708576 0.531922 108 123 109
-0.832713 -1.2483 -0.00428958 -0.587051 -0.736428 0.336221 118 125 108
-0.815596 -1.24698 0.00833961 -0.468906 -0.762168 0.446348 51 110 103
-0.771976 -1.27952 0.0126815 -0.535424 -0.819806 0.203075 51 112 102
-0.75996 -1.2934 0.00729285 -0.486711 -0.863423 -0.132715 83 119 104
-0.723588 -1.30144 0.0200375 -0.219276 -0.583299 0.7821 28 108 96
-0.737182 -1.28308 0.0118969 -0.39582 -0.630738 0.667455 29 109 99
-0.703972 -1.31326 0.0161782 -0.333548 -0.753869 0.566064 38 111 98
-0.675008 -1.30298 0.0118071 0.106984 -0.469066 0.876659 27 111 98
-0.627805 -1.29976 0.0305944 -0.57698 -0.766152 0.283028 26 110 100
-0.583495 -1.32364 0.0303928 -0.634339 -0.744561 0.207952 25 108 100
-0.520717 -1.36055 0.0352486 0.425389 -0.620592 0.658718 27 113 98
-0.468046 -1.39507 0.0582525 -0.370755 -0.657506 0.655916 27 113 98
-0.482448 -1.39424 0.0403504 -0.755816 -0.621636 0.205697 28 116 97
-0.456668 -1.38291 0.0589013 -0.058177 -0.737165 0.673203 26 112 99
-0.422963 -1.37884 0.0535421 -0.201324 -0.80084 0.564025 27 113 99
-0.41996 -1.41149 0.06546 -0.487244 -0.568815 0.662603 27 113 98
-0.3378 -1.39641 0.0635045 -0.0384198 -0.917067 0.396878 27 113 100
-0.308627 -1.43071 0.0598121 0.0467178 -0.75923 0.649144 27 113 99
-0.291739 -1.42199 0.0504013 0.164952 -0.830445 0.532121 27 113 99
-0.275579 -1.42802 0.0689561 -0.208189 -0.900845 0.380967 26 113 100
-0.256349 -1.43527 0.0588443 0.627814 -0.776811 0.0491419 26 112 100
-0.169236 -1.46477 0.0724858 0.0303177 -0.999427 0.0150783 26 111 101
-0.0118355 -1.47251 0.0701666 -0.0503277 -0.97308 0.224906 24 105 105
0.00601074 -1.46322 0.0649076 -0.137589 -0.958626 0.249209 24 106 105
0.0321142 -1.4706 0.0682673 0.0318499 -0.978932 0.201687 24 107 104
0.047418 -1.47412 0.0695181 -0.348461 -0.824238 0.446326 24 106 104
0.0670785 -1.49962 0.0749304 0.335599 -0.93771 -0.0898508 25 108 103
0.0680103 -1.47749 0.0874804 0.304228 -0.587314 0.750005 23 104 104
0.162522 -1.43217 0.0645905 0.206499 -0.850171 0.484322 23 105 105
0.298966 -1.42685 0.0591066 0.2153 -0.963028 0.161937 23 105 105
0.361737 -1.425 0.0661721 0.287312 -0.927826 -0.237889 23 104 106
0.416056 -1.42202 0.0517464 0.449714 -0.780285 0.434642 23 104 104
0.439512 -1.42456 0.0702416 0.308684 -0.950991 -0.0181662 23 104 106
0.540196 -1.37631 0.0407511 0.440761 -0.63957 0.629825 21 101 107
0.67556 -1.31678 0.0227404 0.274123 -0.79436 0.542079 20 96 109
0.744198 -1.28369 0.00969329 0.496819 -0.850996 0.170226 33 95 108
0.769728 -1.27079 0.0134002 0.53962 -0.841884 -0.0063917 26 91 108
0.827073 -1.2417 -0.000387407 0.127121 -0.359233 0.92455 79 108 106
0.824955 -1.26591 -0.00150668 0.536141 -0.577816 0.615371 119 123 107
0.865629 -1.22383 0.00263426 0.348115 -0.481232 0.804507 97 115 108
-0.814986 -1.26339 -0.00329823 -0.504383 -0.715401 0.483528 119 125 108
-0.796014 -1.27631 -0.00380294 -0.449332 -0.893351 -0.00490296 122 127 110
-0.781876 -1.29369 -0.00484239 -0.32205 -0.861704 0.392111 125 127 109
-0.736355 -1.34202 0.00230389 0.0644628 -0.212604 0.97501 129 130 114
-0.743761 -1.305 0.00500176 -0.146671 -0.315383 0.937561 102 122 107
-0.723768 -1.31944 0.00442569 -0.283737 -0.564341 0.77525 110 125 109
-0.697033 -1.30881 0.00627531 -0.432886 -0.869496 0.237879 40 113 99
-0.610936 -1.36891 0.0121221 -0.21149 -0.467932 0.858086 76 120 103
-0.587798 -1.36806 0.0145133 -0.228932 -0.51897 0.823566 42 114 97
-0.55434 -1.37717 0.0136545 -0.32175 -0.712433 0.623632 35 114 96
-0.553111 -1.3739 0.0144054 -0.293999 -0.843053 0.450363 32 115 96
-0.53451 -1.37332 0.0263262 0.405398 -0.617204 0.674323 28 115 97
-0.445304 -1.40883 0.0296254 -0.414733 -0.511373 0.752658 28 115 96
-0.354415 -1.43225 0.0491295 0.406618 -0.655204 0.636686 27 114 98
-0.037443 -1.47575 0.0604804 -0.273524 -0.769048 0.577711 24 107 104
0.0462104 -1.48591 0.0485994 -0.0436564 -0.855283 0.516318 25 109 102
0.0670871 -1.49011 0.0672048 -0.394815 -0.699449 0.595729 25 108 102
0.140471 -1.44495 0.0555378 0.00562494 -0.981107 0.193384 24 107 103
0.152772 -1.43286 0.0430732 0.0548759 -0.977312 0.204572 24 107 103
0.18024 -1.4285 0.0290819 0.192798 -0.593925 0.781078 25 109 103
0.251976 -1.44485 0.0453275 0.335973 -0.905555 0.259021 25 108 103
0.299027 -1.43726 0.0383129 0.497102 -0.77951 0.381122 24 107 103
0.280604 -1.43989 0.0495433 0.00835969 -0.979538 0.201087 24 107 103
0.31485 -1.42466 0.0280776 0.0920779 -0.995619 0.0162592 25 108 103
0.33457 -1.42306 0.0443466 -0.0802818 -0.987087 -0.138618 24 107 104
0.354508 -1.43461 0.0396874 -0.115269 -0.988815 -0.0946468 24 107 103
0.479041 -1.39891 0.023521 0.620445 -0.619095 0.481425 23 106 105
0.561019 -1.35641 0.025963 0.260897 -0.8579 0.442651 22 101 107
0.58027 -1.36092 0.00786608 0.197702 -0.590284 0.782611 31 103 106
0.601091 -1.34936 0.013512 0.218246 -0.577903 0.786382 23 100 106
0.62099 -1.33527 0.0126883 0.375929 -0.84667 0.376599 23 101 108
0.641901 -1.33818 0.0134009 0.225497 -0.468492 0.854205 26 99 107
0.664865 -1.3371 0.00416619 0.423871 -0.839767 0.339299 76 111 108
0.706588 -1.32522 0.00455259 0.42931 -0.821043 0.376273 100 118 109
0.745118 -1.30209 0.00657421 0.356596 -0.615871 0.702525 91 114 109
0.727652 -1.32443 -0.00521882 0.240945 -0.836711 0.491793 123 124 108
0.739064 -1.30726 -0.002638 0.262545 -0.617278 0.741645 114 121 108
0.76783 -1.30447 0.00104639 0.531576 -0.846883 -0.0147265 116 119 104
0.789853 -1.29686 -0.00259635 0.118797 -0.533441 0.837453 123 124 108
0.814323 -1.26285 -0.00282807 0.323875 -0.407245 0.853965 113 121 108
0.807364 -1.28183 -0.00243947 0.527278 -0.611823 0.589619 122 123 107
-0.754019 -1.30025 -0.0158809 0.00225747 -0.740899 0.671613 121 125 108
-0.676083 -1.3625 -0.00211978 0.00826135 -0.504898 0.863139 125 126 109
-0.675633 -1.36246 -0.00241483 -0.00910485 -0.522614 0.852521 125 126 109
-0.652893 -1.37516 -0.00205268 -0.348809 -0.573154 0.741503 128 128 110
-0.633724 -1.38885 -0.00379181 -0.47955 -0.503152 0.718937 126 125 107
-0.636082 -1.36757 0.00344157 -0.176268 -0.465632 0.867246 119 127 109
-0.597037 -1.38722 0.00484807 -0.150972 -0.497863 0.854014 116 125 108
-0.579458 -1.40957 0.00870175 -0.285722 -0.471938 0.834049 120 127 109
-0.573254 -1.38713 0.00881846 -0.212304 -0.50212 0.838333 89 122 104
-0.552184 -1.40041 0.00800777 -0.120943 -0.327848 0.936957 103 125 107
-0.55227 -1.392 0.00382266 -0.352747 -0.831728 0.428717 92 122 104
-0.534342 -1.38764 0.0103792 -0.31312 -0.767713 0.559082 41 115 96
-0.526619 -1.40102 0.0130084 -0.139132 -0.285618 0.94819 59 118 99
-0.522223 -1.40893 0.00386679 -0.358375 -0.919518 0.161413 101 122 104
-0.514002 -1.42116 0.00572739 -0.29906 -0.68396 0.665403 114 124 106
-0.502933 -1.40924 0.0107635 -0.270964 -0.829876 0.487734 66 120 100
-0.501475 -1.40096 0.0165244 -0.160059 -0.484075 0.860263 34 115 95
-0.497213 -1.41397 0.00901956 -0.100705 -0.321557 0.94152 78 121 102
-0.483622 -1.4183 0.00268992 -0.321584 -0.814616 0.482684 99 123 103
-0.470537 -1.41536 0.0157841 -0.116356 -0.501288 0.857421 36 115 94
-0.446489 -1.42904 0.0158522 -0.250557 -0.678119 0.690924 61 119 99
-0.427592 -1.42302 0.0261223 -0.320121 -0.543315 0.7761 32 114 95
-0.429994 -1.41953 0.0186446 -0.153174 -0.629212 0.761991 31 114 95
-0.334049 -1.45622 0.0170452 -0.0844659 -0.823921 0.560374 45 117 97
-0.339813 -1.4397 0.028377 -0.334357 -0.681163 0.651323 28 116 97
-0.313698 -1.4481 0.0247411 -0.131173 -0.991032 -0.0254777 28 116 97
-0.212989 -1.45525 0.0180967 -0.183053 -0.716307 0.673347 27 113 98
-0.191452 -1.45989 0.0287372 -0.114886 -0.57056 0.81318 26 111 98
-0.0765368 -1.47895 0.0267803 -0.0535696 -0.983204 0.174471 25 110 103
-0.0382957 -1.48124 0.0282364 -0.293607 -0.599518 0.744563 24 108 102
0.0869175 -1.47217 0.0281512 -0.735574 -0.669342 0.104461 26 111 101
0.248957 -1.4572 0.0151256 0.135603 -0.674361 0.725843 27 109 100
0.316791 -1.44928 0.0268912 -0.140675 -0.597041 0.78978 26 108 101
0.336844 -1.4588 0.0176548 0.078642 -0.510756 0.856122 58 115 103
0.334691 -1.43801 0.0257082 -0.156899 -0.689419 0.707166 25 108 101
0.380391 -1.44755 0.0179139 0.0308044 -0.381894 0.923692 40 109 100
0.39247 -1.42816 0.0249264 0.0349189 -0.376712 0.925672 25 107 102
0.417238 -1.4209 0.0147038 0.295593 -0.78803 0.540031 27 108 102
0.436592 -1.40616 0.0165724 0.357771 -0.481247 0.800251 24 107 104
0.484438 -1.41923 0.0121745 -0.160804 -0.370468 0.91482 85 119 107
0.524176 -1.40164 0.0026337 0.305941 -0.647614 0.697851 84 115 105
0.522546 -1.38063 0.00992646 0.231167 -0.601408 0.764768 26 104 105
0.545915 -1.40959 -0.000385189 0.0961607 -0.418669 0.903034 126 129 112
0.546413 -1.39 0.00161503 0.14179 -0.399924 0.905515 85 117 107
0.576594 -1.38385 0.00229243 -0.359723 -0.720684 0.592633 108 124 111
0.612112 -1.39247 -0.000667643 0.0599986 -0.41906 0.905974 126 126 109
0.688246 -1.33749 -0.00193454 0.417869 -0.792172 0.444802 115 122 108
0.69144 -1.35606 -0.00148183 0.427651 -0.839062 0.336288 106 104 86
0.716079 -1.34293 -0.000758514 0.0253182 -0.588805 0.807879 123 124 108
0.804977 -1.29817 -0.0216363 -0.00243768 -0.736235 0.676721 113 112 94
-0.540614 -1.41901 -0.00340329 -0.392595 -0.510864 0.764779 126 128 110
-0.455662 -1.47087 0.00367104 -0.625656 -0.333619 0.705162 123 123 102
-0.390795 -1.45676 0.00145349 0.0421861 -0.248602 0.967687 115 125 108
-0.368454 -1.45479 -0.00343468 -0.035643 -0.414325 0.909431 114 126 108
-0.33138 -1.4969 0.00982819 0.177457 -0.41781 0.891035 122 124 107
-0.349615 -1.45195 0.00932716 -0.174656 -0.900355 0.398567 60 119 99
-0.337409 -1.45952 0.00874351 -0.190845 -0.811431 0.552411 79 122 102
-0.313656 -1.46459 0.00745883 -0.170114 -0.742256 0.648165 81 121 102
-0.328442 -1.46017 0.00260881 -0.192276 -0.853099 0.485029 92 122 103
-0.280014 -1.46713 -0.000748892 -0.155903 -0.739013 0.655404 90 121 103
-0.27919 -1.44938 0.0119139 -0.0238765 -0.569406 0.82171 30 115 97
-0.233314 -1.4603 0.00659525 -0.153214 -0.761223 0.630131 35 114 98
-0.232897 -1.46 0.00699786 -0.0566518 -0.783578 0.618705 35 114 98
-0.190036 -1.47035 0.00255521 -0.165539 -0.888471 0.428037 47 114 99
-0.170613 -1.46906 0.0151148 -0.27497 -0.569754 0.77445 28 112 100
-0.149134 -1.47766 0.00925473 -0.0753142 -0.585481 0.80718 41 112 100
-0.0834503 -1.49973 0.0126232 0.0178009 -0.487311 0.873047 76 118 106
-0.0765345 -1.48771 0.0049801 -0.039802 -0.930297 0.364641 60 113 103
-0.0394086 -1.49852 0.00865075 -0.0856392 -0.841784 0.532977 82 119 106
-0.000964299 -1.50182 0.00692666 -0.0693959 -0.700432 0.710338 94 120 105
-0.000964211 -1.48569 0.0238027 0.0341758 -0.998882 -0.0326639 26 110 102
0.0241084 -1.47718 0.0143985 -0.013149 -0.940572 0.339341 27 110 101
0.0457172 -1.48958 0.0138966 -0.0313354 -0.973009 0.228629 43 113 101
0.0552009 -1.47154 0.0100753 0.00495997 -0.680572 0.732664 29 111 100
0.0673291 -1.49603 0.00570111 0.0599064 -0.835661 0.545969 84 118 103
0.0674613 -1.47397 0.0121634 0.0968371 -0.863979 0.494128 27 111 100
0.0674951 -1.4782 0.0143177 0.0991633 -0.916055 0.388601 27 111 100
0.0868824 -1.4854 0.0110655 0.0547164 -0.602011 0.796611 43 113 101
0.0873593 -1.48505 0.00830938 0.0861901 -0.583699 0.807383 46 113 100
0.117025 -1.49245 0.00796699 0.0844245 -0.988189 0.127891 71 117 102
0.230252 -1.4682 0.0140328 0.0832055 -0.777513 0.623338 34 111 99
0.274554 -1.47262 -0.00173651 0.103781 -0.85923 0.500952 109 122 106
0.294001 -1.46369 0.00498575 0.15362 -0.722815 0.67375 72 117 104
0.309068 -1.473 0.007334 0.240953 -0.970183 0.0262046 95 120 105
0.329755 -1.46225 0.0128065 0.138883 -0.582976 0.800531 71 118 104
0.343744 -1.48136 0.00650583 -0.0951429 -0.437239 0.894299 122 126 110
0.388178 -1.4684 0.00489483 0.120329 -0.261131 0.957774 123 126 110
0.400928 -1.44748 0.00970715 0.0655325 -0.367171 0.927842 92 120 107
0.425943 -1.4475 0.00781272 0.150974 -0.404639 0.901928 106 121 107
0.413717 -1.4684 0.00251948 0.709649 -0.40634 0.575575 115 117 101
0.461595 -1.42349 -0.00148817 0.401083 -0.84899 0.344018 102 119 105
0.473745 -1.44147 -0.0037586 0.664968 -0.552857 0.502162 125 128 111
0.490418 -1.42828 0.00117377 0.215308 -0.876648 0.430269 125 128 112
0.518935 -1.41828 -0.0154897 0.359065 -0.735799 0.574171 123 125 108
-0.378719 -1.4754 -0.00765917 -0.675153 -0.362119 0.642681 122 121 103
-0.349074 -1.46966 -0.0052651 -0.119564 -0.550355 0.826326 126 128 110
-0.299302 -1.4719 -0.0136461 -0.161722 -0.727534 0.666739 120 124 107
-0.280612 -1.48374 -0.0174971 0.483273 -0.463033 0.742999 119 120 104
-0.225181 -1.48827 0.00162147 -0.0548522 -0.525994 0.848718 115 125 108
-0.20762 -1.49013 -0.0163001 -0.134033 -0.686116 0.715039 124 125 108
-0.170464 -1.48322 0.00025752 -0.0688108 -0.77247 0.631312 84 119 103
-0.0763791 -1.5113 -0.000491739 -0.0266341 -0.802506 0.596049 121 125 108
0.0191225 -1.5104 -0.0011235 -0.0118139 -0.983842 0.178647 121 125 107
0.0413041 -1.52323 -0.000239794 0.0418134 -0.975429 0.216311 122 123 105
0.041454 -1.50091 0.00184285 0.000638417 -0.991628 -0.129128 103 120 103
0.0971682 -1.50722 0.00493883 0.0176094 -0.528772 0.848581 116 124 108
0.117456 -1.51458 -0.0039571 -0.627605 -0.341489 0.69964 126 127 109
0.133529 -1.55011 0.00672949 -0.634023 -0.313961 0.706713 120 120 100
0.293557 -1.48245 -0.00475031 0.0674842 -0.819081 0.569694 121 124 107
0.299751 -1.51715 -0.00723347 0.665581 -0.685352 0.295457 126 127 111
1.69148 7.87835 -3.98753 -0.848847 -0.396511 0.349625 118 119 105
1.70604 7.68428 -3.93441 -0.854224 -0.48498 0.187337 117 118 101
1.72919 7.65863 -3.87814 -0.852293 -0.483075 0.200588 113 115 101
1.62541 7.88838 -4.02505 -0.726495 -0.68701 -0.0149085 108 109 96
1.64559 7.83723 -4.02449 -0.842571 -0.381793 0.37988 125 126 109
1.68504 7.83741 -4.03192 -0.831645 -0.380971 0.404014 129 130 112
1.58219 7.87376 -4.12124 -0.58989 -0.334992 0.734718 128 129 112
1.59909 7.91594 -4.08925 -0.739307 -0.672258 0.0386602 115 117 100
1.50924 7.99098 -4.19907 -0.808403 -0.588261 0.0208068 119 121 107
1.55278 7.9005 -4.18497 -0.753647 -0.642885 0.136805 127 128 112
1.59387 7.76031 -4.16062 -0.745989 -0.22177 0.627948 121 122 106
1.62337 7.73965 -4.16959 -0.849365 -0.291964 0.4397 121 123 106
1.58887 7.75588 -4.209 -0.688685 -0.435999 0.579325 119 120 103
1.5537 7.82603 -4.21456 -0.719114 -0.598356 0.353334 116 117 101
1.50887 7.82352 -4.31444 -0.438687 -0.534167 0.722647 116 117 101
1.54226 7.76227 -4.25505 -0.664112 -0.408277 0.626311 111 112 98
1.57919 7.71086 -4.25702 -0.651363 -0.404532 0.641934 108 109 95
1.45294 7.91872 -4.36478 -0.708458 -0.400365 0.581201 126 128 113
1.47034 7.83064 -4.352 -0.714032 -0.253764 0.652505 126 127 110
1.50834 7.77635 -4.34256 -0.8914 -0.336416 0.303696 121 122 105
-3.49755 2.38601 -2.17388 0.860274 -0.0855103 0.502609 122 124 107
1.49108 7.78056 -4.3547 -0.774362 -0.275062 0.569828 127 128 111
1.51886 7.80056 -4.38679 -0.815889 -0.313039 0.48614 125 126 108
-3.63898 2.22755 -2.20803 0.36318 -0.565048 0.740825 109 109 93
-3.6248 2.27254 -2.20792 0.601448 -0.186032 0.776951 90 89 76
-3.57984 2.27001 -2.22824 0.242774 -0.189939 0.951306 104 105 91
-2.89095 2.39077 -2.27312 0.912506 -0.267689 0.309315 121 123 106
-2.89693 2.42384 -2.2806 0.890774 -0.146775 0.430091 116 118 101
-3.61149 2.21894 -2.23043 0.19096 -0.202279 0.96053 103 104 89
-3.17317 2.23589 -2.29565 0.603913 -0.704419 0.372939 119 119 103
-3.09873 2.27981 -2.31168 0.2575 -0.181638 0.949053 112 112 97
-3.05205 2.27817 -2.29367 0.0728236 -0.581205 0.810492 119 120 104
-2.99649 2.33188 -2.31382 0.781083 -0.539786 0.313913 112 113 97
-3.21251 2.20905 -2.30631 0.481264 -0.714636 0.507622 115 117 100
-3.08379 2.24672 -2.32992 0.340752 -0.0810942 0.936649 114 114 97
-3.04386 2.27021 -2.31995 0.218974 -0.34703 0.911932 110 110 94
-1.66668 -1.47232 -0.862203 0.338667 -0.0587792 0.939068 114 114 99
-1.65962 -1.46162 -0.873266 0.252624 -0.532859 0.807616 114 114 98
-1.69224 -1.4838 -0.868873 0.111072 -0.583097 0.804774 118 118 102
-1.66927 -1.4931 -0.87878 0.366171 -0.915904 0.164434 118 118 102
-1.61972 -1.48395 -0.889914 0.194676 -0.98058 0.0237512 114 114 98
-1.69709 -1.50447 -0.893283 0.0794255 -0.700133 0.709581 115 115 98
-1.65703 -1.51058 -0.893035 0.335245 -0.494726 0.801784 115 115 99
-1.59285 -1.49047 -0.899373 0.142904 -0.97898 0.14552 115 115 98
-1.98522 -1.55599 -0.88686 0.498844 -0.643283 0.580811 123 124 107
-1.92526 -1.51112 -0.921637 0.0323614 -0.937092 -0.347579 115 115 99
-1.97794 -1.52163 -0.932831 0.618677 -0.769447 0.158713 116 116 100
-1.89153 -1.49904 -0.93609 0.233038 -0.905094 -0.355664 115 116 100
-1.96341 -1.51795 -0.955907 0.57512 -0.792786 0.201808 116 115 100
-1.81638 -1.52893 -0.965023 0.332429 -0.8765 0.348192 120 121 105
-1.78224 -1.52761 -0.948851 0.350328 -0.881992 0.315215 117 117 101
-1.97084 -1.53077 -0.978803 -0.178592 -0.973852 0.140416 119 118 103
-1.89077 -1.52839 -0.987347 0.267411 -0.846282 0.460757 119 118 103
-1.71572 -1.55487 -0.960964 0.438767 -0.88908 -0.130461 114 114 99
-1.96273 -1.5422 -1.00101 0.364955 -0.857416 0.362831 108 107 92
-1.90816 -1.53085 -0.999454 0.208106 -0.925328 -0.316955 119 120 104
-1.88491 -1.53228 -1.01543 0.295675 -0.71562 0.632822 118 119 103
-1.86298 -1.519 -1.00945 0.207518 -0.908407 -0.362951 120 120 104
-1.98971 -1.55512 -1.01208 0.398224 -0.868225 -0.295979 108 107 91
-1.96322 -1.5533 -1.02778 0.493874 -0.742695 -0.452208 109 108 93
-1.94035 -1.53915 -1.01819 0.430168 -0.829893 -0.355294 109 108 93
-1.807 -1.55731 -1.01697 0.473301 -0.501935 0.723911 116 116 101
-1.80987 -1.58778 -1.02975 -0.0463542 -0.973092 0.225705 122 122 106
-2.06553 -1.88816 -0.966959 0.27502 -0.0216786 0.961194 120 120 103
-2.12854 -1.98352 -0.960702 0.428956 -0.261822 0.86455 117 116 100
-2.11295 -1.94387 -0.9701 0.349959 -0.00468475 0.936753 112 112 97
-2.09444 -1.90419 -0.978118 0.326606 -0.00894235 0.945118 113 112 96
-2.05308 -1.92035 -0.975185 0.664078 -0.158821 0.7306 117 117 101
-2.15854 -2.03465 -0.952924 0.656251 -0.192603 0.729547 115 114 98
-2.14543 -2.01076 -0.959784 0.418229 -0.279304 0.864334 115 114 98
-2.12111 -1.9781 -0.982649 0.434268 -0.354535 0.82808 120 120 104
-2.19643 -2.09524 -0.938238 0.961057 -0.146339 0.234425 116 117 100
-2.13914 -2.05171 -0.964057 0.561579 -0.279672 0.778725 117 117 100
-2.14 -2.00491 -0.982415 0.410598 -0.265011 0.872455 112 112 96
-2.11795 -2.01185 -0.976349 0.753066 -0.190073 0.629892 116 116 100
-2.18157 -2.11339 -0.960114 0.548279 -0.194604 0.813338 109 108 92
-2.17632 -2.06997 -0.965645 0.66204 -0.179602 0.72763 117 117 100
-2.10912 -2.0044 -0.997765 0.117154 -0.490968 0.863265 117 116 100
-2.09388 -2.03964 -0.996349 0.696121 -0.392374 0.601214 117 117 101
-2.10837 -2.07103 -0.994807 0.700273 -0.381244 0.603549 117 117 101
-2.11928 -2.1135 -0.987555 0.438029 -0.594348 0.674449 112 111 93
-1.69372 -2.79765 2.13702 0.708907 -0.701016 0.0776366 118 116 100
-1.68868 -2.80785 2.13754 0.883411 -0.460156 0.0885519 116 113 98
-1.6754 -2.79415 2.13729 0.703415 -0.699862 0.1241 126 123 105
-1.67521 -2.84721 2.11878 0.991922 -0.0540896 0.114735 99 98 84
-1.68588 -2.81815 2.11854 0.7024 -0.693713 0.159365 109 107 93
-1.6703 -2.80223 2.11854 0.698067 -0.685858 0.205673 125 122 104
-1.67839 -2.83183 2.09153 0.996684 0.0656617 -0.0480518 103 103 88
-1.67565 -2.80626 2.09088 0.707628 -0.704065 0.0596321 119 117 101
-1.66708 -2.79565 2.09073 0.857248 -0.514726 -0.0135199 127 123 107
1.63535 -0.0224048 2.06093 -0.178631 -0.734282 0.654921 150 152 139
-1.67213 -2.80928 2.07202 0.710122 -0.695492 -0.109628 113 111 95
-1.67979 -2.7996 2.07128 0.709552 -0.702023 -0.0608266 120 118 102
-1.6767 -2.79872 2.07137 0.708419 -0.705789 0.00181794 123 120 103
-1.6689 -2.81238 2.05317 0.710562 -0.694981 -0.110011 113 111 95
-1.68371 -2.80504 2.05215 0.709829 -0.702195 -0.0553617 110 108 93
-1.66589 -2.79981 2.05275 0.709828 -0.695992 -0.108349 119 116 100
-1.66083 -2.78669 2.0524 0.709499 -0.697754 -0.0987483 120 117 101
-1.71252 -2.82333 2.03243 0.710031 -0.703975 -0.0166188 119 117 99
-1.67738 -2.81981 2.03397 0.710667 -0.702542 -0.0372496 106 106 90
-1.67969 -2.80888 2.03333 0.710161 -0.702211 -0.0506975 110 108 93
-1.68539 -2.79731 2.03259 0.834334 -0.539522 -0.113152 116 114 98
-1.67104 -2.82428 2.01532 0.709419 -0.70427 0.0269901 108 107 91
-1.66165 -2.79772 2.01442 0.850247 -0.521206 0.0736494 126 124 106
-1.66572 -2.829 1.99667 0.709785 -0.703952 0.0256354 109 108 90
-1.66407 -2.81709 1.99613 0.709065 -0.704014 0.0398988 115 114 97
-1.64881 -2.8015 1.99612 0.722372 -0.68709 0.0780195 125 124 106
-1.65737 -2.79194 1.99519 0.822473 -0.533106 0.198334 126 125 107
-1.62979 -2.78853 1.99637 0.810501 -0.512077 0.284369 126 123 106
-1.66474 -2.83851 1.97731 0.709344 -0.703106 0.0497269 105 104 87
-1.67272 -2.82925 1.97635 0.708441 -0.70303 0.0621291 105 104 88
-1.67552 -2.81516 1.9762 0.700206 -0.694516 0.165407 109 109 92
-1.66959 -2.81438 1.97651 0.694115 -0.6818 0.230983 114 113 97
-1.6409 -2.79475 1.97707 0.677157 -0.634102 0.373327 124 123 105
-1.60569 -2.78785 1.9726 0.519047 -0.125965 0.845413 125 123 105
1.83368 -0.414715 1.94865 -0.403728 -0.894397 0.192506 123 124 108
-1.68782 -2.87787 1.95655 0.991164 0.132615 -0.00283815 128 126 104
-1.68554 -2.84871 1.9572 0.808713 0.149867 0.568792 121 118 98
-1.6678 -2.83449 1.95774 0.873939 -0.452252 0.178041 103 102 87
-1.67032 -2.84569 1.9386 0.927417 0.374025 0.00181567 121 119 98
-1.67524 -2.81404 1.93745 0.917937 -0.364094 0.157569 107 107 91
-1.67666 -2.7979 1.91714 0.764237 -0.514959 0.388277 109 108 94
-1.68836 -2.80296 1.89754 0.687753 -0.614708 0.386173 98 98 86
3.34981 0.84054 1.79739 0.517119 -0.836384 -0.181797 107 107 91
1.07749 0.439116 1.7095 0.477906 -0.851722 0.214885 83 95 87
-1.40624 2.97836 1.34934 -0.142071 -0.989541 0.024974 111 112 97
1.09517 0.459862 1.6628 0.845809 -0.475637 0.241612 101 101 87
-1.43831 3.0013 1.30582 -0.164315 -0.986306 -0.0141847 117 117 100
-1.43107 2.99999 1.30885 -0.19172 -0.981363 0.0130708 115 115 99
-1.39101 2.96653 1.29919 -0.171273 -0.981933 0.0804597 81 84 75
-1.20955 2.85936 1.29803 -0.18559 -0.982623 -0.00295179 105 105 90
-1.44757 2.98018 1.25833 -0.165162 -0.985947 0.0250848 107 107 91
1.18757 0.482107 1.57524 0.437367 -0.889683 0.13105 88 99 95
-3.0229 3.15921 1.12661 0.789596 -0.613616 0.00363084 101 100 85
-3.03378 3.15538 1.08799 0.699047 -0.71032 0.0823352 107 106 89
-3.05654 3.16273 1.08379 0.794667 -0.607007 0.00680833 107 105 89
3.35274 0.849774 1.60287 -0.369144 -0.928879 0.0302811 114 112 95
-3.10163 1.04887 1.2466 0.589712 -0.807079 0.0293903 107 107 90
-3.04055 3.07689 1.02312 0.792709 -0.608522 0.03625 104 102 86
-2.98568 3.17469 1.0238 0.784586 -0.618333 -0.0457077 106 104 89
-2.97069 3.20586 1.02476 0.78681 -0.616757 -0.0232524 108 106 89
-0.006091 -0.285239 1.48673 0.748538 -0.30041 0.591138 17 70 101
0.101982 -0.215147 1.50204 0.0880804 -0.579813 0.809975 17 68 101
0.121704 -0.23629 1.49593 0.41976 -0.361233 0.832653 17 69 101
0.112887 -0.137608 1.48618 0.682513 -0.0949914 0.724674 17 66 100
0.106305 -0.158661 1.48576 0.598998 -0.312572 0.737224 17 66 101
-0.166432 -0.300596 1.46169 0.234048 -0.440057 0.866933 17 67 100
-0.116692 -0.321277 1.45787 0.181062 -0.392692 0.901671 17 71 101
-0.132861 -0.267894 1.46194 0.469518 -0.367518 0.802797 17 67 100
-0.115852 -0.289698 1.46203 0.594225 -0.656688 0.464389 17 69 100
-0.0965212 -0.279116 1.46282 0.0456957 -0.635475 0.770768 17 69 101
-0.0808011 -0.297678 1.46385 0.373625 -0.636734 0.674518 17 70 101
0.02617 -0.205712 1.45782 -0.00686604 -0.531152 0.847249 17 70 101
0.11256 -0.284753 1.46928 0.243343 -0.365291 0.898525 17 76 102
0.0618787 -0.224547 1.47579 0.0983629 -0.414395 0.904766 17 70 101
0.145621 -0.256889 1.47886 -0.10915 -0.842688 0.527222 18 73 102
0.109373 -0.21993 1.4786 0.440182 -0.345793 0.828654 17 70 101
0.159998 -0.222179 1.46525 0.10617 -0.842453 0.528206 17 72 102
-2.97497 3.1959 0.95305 0.195796 -0.926779 0.320537 107 103 86
-0.0196341 -0.348099 1.45531 0.485634 -0.363004 0.795228 17 76 101
-0.0276513 -0.35358 1.45465 0.39301 -0.445687 0.804305 17 76 102
0.0624275 -0.346508 1.46279 0.335096 -0.336838 0.879915 17 78 102
0.0443344 -0.335223 1.46617 0.398601 -0.315561 0.861127 17 76 101
0.0674951 -0.376235 1.45724 0.372591 -0.320706 0.870818 17 81 102
0.284155 -0.197935 1.46417 0.628263 -0.66573 0.402603 18 80 103
0.410149 -0.159379 1.46345 0.649566 -0.201212 0.733197 18 88 103
3.28928 0.862288 1.52563 0.47626 -0.786204 0.393776 88 90 79
-0.0964212 -0.432363 1.42461 0.142397 -0.461628 0.87557 18 79 102
-0.0116399 -0.37493 1.42234 0.673163 -0.525137 0.520655 18 81 102
0.0483125 -0.432296 1.43107 0.425139 -0.213849 0.879503 18 85 102
0.081176 -0.396734 1.44215 0.7364 -0.106984 0.668034 18 84 102
0.104227 -0.395488 1.43774 0.133812 -0.385566 0.912926 18 85 103
0.33212 -0.254495 1.43399 0.908401 -0.256699 0.33002 17 84 102
0.401732 -0.192133 1.43428 0.829156 -0.340859 0.443075 18 89 103
0.385803 -0.175288 1.43419 0.754338 -0.408801 0.513669 18 89 103
0.396872 -0.143059 1.44396 0.682266 -0.110379 0.722724 18 89 103
0.453294 -0.150696 1.42598 0.708421 -0.392013 0.586912 19 94 103
3.31386 0.864692 1.50941 -0.178697 -0.98281 -0.0463881 69 70 62
-3.06735 2.94875 0.870983 0.517719 -0.8554 -0.0160692 107 106 91
-0.0397937 -0.537 1.42442 0.258641 -0.303757 0.916971 18 84 102
-0.014814 -0.531662 1.42573 0.306574 -0.318284 0.897055 18 84 101
0.00485857 -0.478092 1.41445 0.464032 -0.275032 0.84204 18 85 102
0.114268 -0.414591 1.42618 0.171053 -0.360524 0.916931 18 86 103
0.151034 -0.396237 1.42756 0.264107 -0.394526 0.880112 18 86 103
0.278693 -0.358659 1.41925 0.501256 -0.432358 0.749539 18 84 103
0.285277 -0.327204 1.41729 0.621808 -0.341136 0.704968 18 84 103
0.310014 -0.24772 1.42012 0.845047 -0.282691 0.453852 18 84 103
0.384459 -0.322015 1.42188 0.612449 -0.165028 0.773093 19 87 103
0.414259 -0.290321 1.42841 0.546891 -0.195677 0.814015 18 88 104
-3.02646 1.0104 1.04544 0.623595 -0.731499 0.275751 107 108 93
-2.9928 1.04825 1.0393 0.510827 -0.812388 0.281216 110 111 95
-3.01112 1.0432 1.0667 0.546089 -0.818329 0.179236 113 114 98
-2.95765 1.05678 1.0506 0.390543 -0.683695 0.616472 111 112 95
-2.81674 1.10723 1.05913 0.608058 -0.673952 0.419589 123 123 106
-2.79736 1.1281 1.05624 0.523314 -0.679473 0.514256 124 124 106
-2.76937 1.14972 1.05621 0.624951 -0.535896 0.567672 122 122 105
-3.05301 2.94809 0.84021 0.524385 -0.848007 -0.0768421 106 105 89
-0.227997 -0.572528 1.39876 0.335383 -0.366863 0.867715 18 77 102
-0.197604 -0.523803 1.38507 0.468016 -0.379176 0.79824 18 79 102
0.417737 -0.315204 1.41064 0.606683 -0.20018 0.769327 18 89 104
0.416371 -0.282714 1.40799 0.803427 -0.349551 0.481995 18 90 104
0.42349 -0.293448 1.41031 0.609941 -0.17197 0.773562 18 90 104
0.436145 -0.308931 1.39749 0.312699 -0.833041 0.456357 18 92 105
0.504354 -0.207061 1.38825 0.611212 -0.230094 0.757283 20 98 102
0.517575 -0.175677 1.39332 0.661955 -0.149892 0.734404 21 99 102
0.512226 -0.139983 1.3909 0.404628 -0.353043 0.843586 21 100 101
0.53877 -0.178891 1.38602 0.56763 -0.213149 0.795213 21 101 100
0.58898 0.0216439 1.36973 0.70792 -0.163371 0.687138 25 108 96
3.28885 0.852181 1.4611 -0.328161 -0.944615 0.00347083 75 77 67
-3.00642 1.01202 1.01835 0.583179 -0.705017 0.403551 111 112 96
-3.02239 1.0298 1.03856 0.546197 -0.81826 0.179219 112 113 97
-2.96148 1.03542 1.0243 0.558286 -0.693502 0.455381 107 109 93
-2.77548 1.12625 1.02931 0.599108 -0.53218 0.598209 112 113 98
-2.74213 1.15204 1.03027 0.834505 -0.221143 0.504676 120 120 104
-3.06845 2.95559 0.805252 0.501821 -0.841293 0.201003 108 107 91
-0.394907 -0.520186 1.34604 0.818878 -0.12355 0.560512 17 66 101
-0.176487 -0.657949 1.37557 0.116414 -0.541978 0.83229 18 81 103
-0.167621 -0.628654 1.38687 0.351688 -0.279714 0.893351 18 81 102
-0.0787151 -0.608894 1.37394 0.112649 -0.581782 0.805506 18 87 103
-0.00519824 -0.585364 1.3759 0.195421 -0.502877 0.841977 18 90 104
0.372535 -0.355672 1.38811 0.683454 -0.0985002 0.723318 18 89 104
0.492158 -0.336184 1.37905 0.405827 -0.566849 0.716929 19 96 104
0.501016 -0.281555 1.3799 0.0602388 -0.545969 0.835637 20 97 103
0.567247 -0.167257 1.38415 0.442214 -0.39269 0.806375 22 103 99
3.24057 0.887813 1.43813 -0.247787 -0.968198 0.0345496 110 110 96
3.28366 0.856789 1.42653 -0.205667 -0.975953 0.0722322 81 83 72
-2.94393 1.01448 1.00187 0.48604 -0.682503 0.545852 95 98 86
-2.91201 1.03809 1.00801 0.364649 -0.641516 0.674899 97 99 87
-2.80962 1.08473 0.988672 0.137726 -0.896958 -0.420116 113 113 98
-0.384175 -0.538654 1.33486 0.154394 -0.378782 0.912517 18 68 102
-0.384175 -0.538654 1.33486 0.154394 -0.378782 0.912517 18 68 102
-0.0392673 -0.621245 1.3628 0.612662 -0.779861 0.128305 18 88 103
0.0857613 -0.59863 1.36387 0.712095 -0.504472 0.488291 18 94 104
0.401392 -0.50786 1.37966 0.0631292 -0.766039 0.639686 18 91 105
0.38578 -0.431452 1.37643 0.580363 -0.415475 0.7004 18 90 104
0.470006 -0.43063 1.37173 0.433508 -0.473791 0.766546 19 93 106
0.465742 -0.452118 1.38657 0.224214 -0.412886 0.882753 19 93 106
0.520093 -0.31048 1.35943 0.104576 -0.506825 0.855682 21 99 103
0.559219 -0.285474 1.36416 0.164976 -0.440993 0.882218 22 102 100
0.567896 -0.294797 1.37605 0.542722 -0.678288 0.495357 22 102 101
3.2461 0.878952 1.40935 -0.184492 -0.980677 0.0650835 121 121 107
3.30975 0.846846 1.41429 -0.360173 -0.932838 0.00945864 61 62 56
-0.371483 -0.64155 1.31795 -0.0887599 -0.544515 0.834041 18 70 103
-0.0241378 -0.621928 1.34285 0.918744 -0.125444 0.374397 18 91 104
-0.00906563 -0.655784 1.34544 0.878056 -0.224427 0.422671 18 90 104
0.476237 -0.488586 1.35833 0.694649 -0.227661 0.682373 19 93 106
0.487134 -0.460727 1.35793 0.618097 -0.318378 0.718743 19 93 105
0.720505 0.184832 1.28896 0.411453 -0.235843 0.880389 26 111 94
3.28342 0.855114 1.39971 -0.0349657 -0.999336 0.0102015 83 85 74
3.32088 0.858453 1.39911 -0.357531 -0.933732 -0.0177865 84 84 72
3.34333 0.848968 1.38557 0.404554 -0.913842 0.0350435 93 91 79
-0.334887 -0.644689 1.29652 0.362947 -0.363782 0.857865 18 73 104
-0.342999 -0.653059 1.30824 0.369898 -0.257712 0.892614 18 72 103
-0.07373 -0.707683 1.31757 0.374742 -0.363304 0.852982 18 89 104
-0.0944171 -0.647991 1.32214 0.776845 -0.0436752 0.628176 18 88 103
0.582253 -0.456343 1.33844 0.597564 -0.625436 0.501744 21 99 104
0.590957 -0.423383 1.32465 0.305879 -0.410132 0.859203 22 102 102
0.569511 -0.405213 1.33478 -0.361145 -0.717767 0.595302 21 101 102
0.594047 -0.390645 1.33814 0.447275 -0.210566 0.869257 22 102 102
0.606093 -0.285263 1.32995 0.809303 -0.12942 0.572957 24 106 99
0.688979 -0.124971 1.31032 0.639089 -0.22651 0.735023 26 112 94
0.751568 0.206325 1.26799 0.673426 -0.234882 0.700948 26 111 94
3.29569 0.851703 1.36241 -0.310942 -0.949922 -0.0310405 67 69 60
-0.137971 -0.754526 1.29983 0.538826 -0.174135 0.824223 18 83 103
0.0355931 -0.694472 1.31297 0.378081 -0.375607 0.846152 19 93 104
0.533687 -0.453603 1.30953 -0.132913 -0.535352 0.834105 19 97 105
0.577342 -0.440882 1.32069 0.0242153 -0.572972 0.819217 21 100 103
0.598064 -0.39178 1.3127 0.818834 -0.0552274 0.571367 22 102 101
0.612792 -0.339552 1.30526 0.425653 -0.377657 0.822311 24 106 99
0.62137 -0.347382 1.30812 0.53236 -0.335084 0.777375 24 106 99
0.632717 -0.339813 1.29454 0.425145 -0.37906 0.821928 24 107 99
0.701124 -0.144917 1.29693 0.650919 -0.126399 0.74855 27 113 94
0.778237 0.185953 1.2532 -0.198913 -0.564701 0.800966 27 112 93
3.29542 0.849351 1.33512 0.419489 -0.905821 0.0593068 69 72 62
3.27812 0.858968 1.34165 0.401423 -0.915871 0.00638962 90 92 79
-0.110884 -0.766356 1.26994 0.375338 -0.321019 0.869522 18 85 103
0.366174 -0.654457 1.29376 -0.183779 -0.9828 0.0181565 19 96 105
0.479981 -0.633756 1.30007 0.879693 -0.054447 0.472416 19 92 106
0.471255 -0.642787 1.29779 0.868283 -0.0090251 0.495987 19 93 106
0.471694 -0.642821 1.29657 0.82996 -0.0253061 0.557249 19 92 106
0.489551 -0.585238 1.30048 0.754832 -0.583919 -0.298777 19 92 106
0.676432 -0.377839 1.28009 0.0549006 -0.715696 0.69625 24 107 99
0.669844 -0.351082 1.29185 0.794653 -0.178128 0.580342 25 107 99
0.797079 0.188902 1.24171 0.383695 -0.402433 0.831159 27 113 94
3.27751 0.853237 1.31774 0.424966 -0.902572 0.0690415 95 96 83
-0.136193 -0.810164 1.25891 0.439629 -0.585795 0.68086 18 82 103
-0.112447 -0.79647 1.26054 0.686946 -0.603616 0.404664 19 85 105
0.369731 -0.680472 1.2761 -0.0572227 -0.997335 0.045268 19 96 106
0.383219 -0.671548 1.27702 -0.0412349 -0.998617 0.0326106 19 95 106
0.464628 -0.651286 1.27696 0.698628 -0.259547 0.666749 19 92 106
0.456555 -0.644064 1.2931 0.506297 -0.643224 0.574392 19 93 106
0.477662 -0.646364 1.27989 0.757751 -0.0923931 0.64597 19 92 106
0.500689 -0.626141 1.28382 0.681238 -0.0758851 0.728118 19 90 106
0.484654 -0.634279 1.28171 0.820903 -0.0215341 0.570662 19 91 106
0.509501 -0.588893 1.28563 0.438609 -0.646202 0.624536 19 92 107
0.621545 -0.47734 1.27042 0.304133 -0.525247 0.794744 21 100 104
0.611669 -0.468684 1.26965 0.383017 -0.450909 0.806213 21 100 104
0.640323 -0.464682 1.27116 0.293551 -0.320524 0.900606 22 102 103
0.640236 -0.453824 1.27296 -0.0129107 -0.453216 0.891307 22 103 102
0.652635 -0.44643 1.2733 -0.0583371 -0.858882 0.508841 23 103 102
0.684055 -0.469825 1.26978 0.492975 -0.809788 0.318149 23 104 102
0.701471 -0.457936 1.27845 -0.135527 -0.851915 0.505839 23 105 101
0.786442 -0.256878 1.24918 0.81505 -0.450591 0.364227 27 113 95
0.845083 0.2378 1.20307 0.201332 -0.73754 0.644593 25 108 95
3.30046 0.841966 1.3037 -0.170763 -0.984695 0.0348675 66 69 61
3.34323 0.849868 1.30057 0.0548438 -0.997852 -0.0358199 101 100 86
-0.123833 -0.828203 1.2358 0.139619 -0.990179 -0.00715843 18 84 105
-0.0619129 -0.838938 1.23992 0.868061 -0.401304 0.292276 18 86 104
0.380045 -0.691411 1.25264 -0.0395299 -0.998472 0.0386196 19 94 107
0.465435 -0.662878 1.27374 0.553762 -0.128628 0.82268 19 92 106
0.465435 -0.662878 1.27374 0.553762 -0.128628 0.82268 19 92 106
0.481987 -0.647014 1.26268 0.710599 -0.0597038 0.70106 19 91 106
0.494432 -0.676399 1.27542 0.615922 -0.283145 0.735166 19 90 106
0.500766 -0.628028 1.26682 0.691492 -0.283487 0.664435 19 90 106
0.556845 -0.56837 1.26505 0.363182 -0.326128 0.872777 19 92 107
0.606323 -0.543053 1.25101 0.356877 -0.306241 0.882528 19 96 107
0.599596 -0.50974 1.25577 0.318353 -0.322951 0.891265 20 98 105
0.643298 -0.513592 1.25526 0.6551 -0.189677 0.731346 20 99 105
0.772327 -0.392863 1.24235 0.207113 -0.934631 0.289082 25 109 98
0.816851 -0.243151 1.23016 0.628708 -0.683049 0.371713 27 114 95
3.29452 0.849681 1.27368 -0.353738 -0.935289 -0.0101998 71 74 63
-0.000199636 -0.83972 1.23194 0.450423 -0.355551 0.818964 19 89 105
0.0345485 -0.821384 1.22711 0.0173406 -0.503961 0.863552 19 92 106
0.0465076 -0.831668 1.23747 0.389009 -0.339884 0.856243 18 91 104
0.603722 -0.597561 1.23332 0.596617 -0.555032 0.579645 19 92 107
0.625347 -0.584289 1.23227 0.809385 -0.462146 0.362376 19 93 107
0.628902 -0.525986 1.2424 0.296286 -0.269091 0.916409 20 98 106
0.703908 -0.445862 1.23883 0.646698 -0.762359 -0.0243027 23 105 101
0.703908 -0.445862 1.23883 0.646698 -0.762359 -0.0243027 23 105 101
0.749808 -0.412533 1.22103 0.852706 -0.231037 0.468524 24 107 100
0.787596 -0.388253 1.22572 0.737818 -0.424334 0.524942 25 109 99
0.776383 -0.408157 1.22582 0.199258 -0.929392 0.310686 25 108 100
0.821772 -0.260712 1.22693 0.827158 -0.521352 0.209767 27 113 96
3.27782 0.845523 1.25709 -0.269489 -0.962787 -0.0204255 98 99 84
3.3114 0.846518 1.2532 -0.282903 -0.959148 -0.00045009 61 63 56
0.36679 -0.756669 1.2198 0.793088 -0.233499 0.562574 19 93 106
0.401123 -0.718071 1.22917 0.145477 -0.988841 0.0320939 19 92 106
0.460997 -0.678956 1.22741 0.813702 -0.282228 0.508171 19 89 106
0.550307 -0.619466 1.22743 0.391655 -0.680419 0.619384 20 88 107
0.659574 -0.560248 1.21346 0.359437 -0.322897 0.875524 19 96 107
0.681894 -0.531165 1.22126 0.699015 -0.246533 0.671267 20 99 106
0.686262 -0.571452 1.21244 0.327148 -0.35737 0.874792 19 96 108
0.741444 -0.435047 1.20219 0.766499 -0.621807 0.160735 23 105 102
0.79608 -0.40194 1.20814 0.420929 -0.520425 0.742951 25 108 100
0.807648 -0.380759 1.2034 0.160697 -0.432026 0.887429 25 109 100
0.79608 -0.40194 1.20814 0.420929 -0.520425 0.742951 25 108 100
3.26606 0.860559 1.22538 -0.320795 -0.94706 -0.0129494 104 105 90
3.29076 0.850088 1.23992 -0.340626 -0.940093 -0.0140967 76 79 69
-0.278973 -0.891622 1.15728 0.0045597 -0.552515 0.83349 19 96 105
0.382047 -0.801428 1.19757 0.602329 -0.124497 0.78848 19 90 106
0.386733 -0.761006 1.20765 0.148412 -0.55082 0.821323 19 91 106
0.47104 -0.695007 1.19555 0.626395 -0.163975 0.762064 19 87 107
0.471037 -0.695048 1.19559 0.630483 -0.161323 0.759254 19 88 107
0.55435 -0.650038 1.21093 0.310189 -0.357958 0.880709 19 87 107
0.676539 -0.551693 1.19975 0.376794 -0.340615 0.861399 20 97 107
0.695829 -0.591084 1.2031 -0.18584 -0.678519 0.710687 19 95 107
0.704647 -0.524489 1.20591 -0.233173 -0.559695 0.795218 20 99 105
0.700236 -0.548421 1.19535 0.586966 -0.251769 0.76947 20 97 107
0.706753 -0.571015 1.20433 -0.335989 -0.63478 0.695821 19 96 107
0.730187 -0.479312 1.19822 0.568725 -0.134674 0.811428 22 103 103
0.752712 -0.460774 1.18521 0.47359 -0.874218 0.107032 23 103 104
0.762257 -0.437427 1.19631 0.32071 -0.416139 0.850866 24 105 102
0.774719 -0.424304 1.18064 0.758328 -0.0684824 0.648266 24 106 102
0.780116 -0.461764 1.18315 0.53866 -0.149397 0.829172 23 104 103
0.848087 -0.394301 1.18159 0.0441577 -0.667387 0.743401 24 107 101
-0.608783 -0.835204 1.12305 -0.240475 -0.870358 0.429709 19 89 104
-0.258782 -0.902583 1.15097 -0.180061 -0.604016 0.776365 19 96 105
-0.0636495 -0.930193 1.16209 0.387405 -0.718074 0.578175 19 96 106
0.06765 -0.978638 1.17834 0.0659813 -0.529655 0.845643 20 97 104
0.0778334 -0.964853 1.17575 0.0852375 -0.69427 0.714649 20 96 106
0.243778 -0.883875 1.18413 0.708333 -0.384374 0.592048 19 89 106
0.375825 -0.821161 1.19113 0.675478 -0.725603 0.131266 19 88 106
0.441316 -0.798083 1.18463 0.564284 -0.413471 0.714581 19 86 106
0.493936 -0.744366 1.1828 0.589832 -0.0996565 0.801353 19 85 107
0.577306 -0.688807 1.18432 0.698988 -0.38166 0.604773 19 82 108
0.597122 -0.656678 1.17156 0.340508 -0.29966 0.891212 19 86 107
0.576199 -0.657201 1.1788 0.271917 -0.396387 0.876891 19 85 108
0.770064 -0.46223 1.171 0.554105 -0.486127 0.675757 22 103 104
0.75895 -0.468947 1.16598 0.551794 -0.480723 0.68149 22 103 104
0.772101 -0.436126 1.16464 0.598021 -0.257922 0.758846 23 105 103
0.811052 -0.432147 1.1626 0.231537 -0.720648 0.653495 23 105 103
0.790467 -0.422984 1.16772 0.295827 -0.636144 0.712606 23 105 102
0.803834 -0.398094 1.16255 0.351347 -0.741948 0.571024 24 105 102
0.896701 -0.395968 1.1657 0.676171 -0.340948 0.653106 23 105 103
0.909305 -0.389862 1.17243 0.733322 -0.134191 0.666507 23 104 103
0.895264 -0.291605 1.1482 0.71701 -0.301753 0.628365 25 109 99
0.88134 -0.301817 1.16455 0.949983 -0.1649 -0.265217 25 110 99
0.914401 -0.291299 1.15184 0.638443 -0.125672 0.75934 25 109 99
0.998514 -0.0557671 1.12448 0.510042 -0.635487 0.579666 26 112 98
3.30348 0.85022 1.19574 -0.362934 -0.929637 0.0636732 77 80 70
-0.491398 -0.870107 1.09967 -0.366044 -0.92863 0.0604815 19 96 104
-0.163172 -0.981748 1.13674 0.193313 -0.78335 0.590757 22 101 103
0.119862 -0.928618 1.16813 -0.175148 -0.957485 0.229231 19 93 106
0.42689 -0.82972 1.17613 0.357992 -0.468649 0.807595 19 85 107
0.46052 -0.799812 1.17044 0.744421 -0.136743 0.653559 19 84 107
0.541275 -0.750243 1.16862 0.36725 -0.609866 0.702276 19 81 108
0.560447 -0.748172 1.15927 0.37388 -0.376846 0.847467 19 81 108
0.57712 -0.754903 1.16244 0.418047 -0.206781 0.884578 19 82 108
0.639776 -0.711054 1.15983 0.484419 -0.426164 0.764017 19 85 108
0.628154 -0.636482 1.16181 -0.328306 -0.758115 0.56345 19 86 107
0.805534 -0.495443 1.14428 0.305681 -0.818974 0.485633 21 99 106
0.810045 -0.431607 1.15157 0.64577 -0.638202 0.419142 23 104 104
0.801084 -0.441871 1.14224 -0.0111032 -0.846011 0.533051 22 102 105
0.794895 -0.439404 1.1438 0.808928 -0.47407 0.347697 22 103 104
0.822379 -0.433294 1.15071 0.16789 -0.674804 0.718646 23 104 104
0.847369 -0.440028 1.13994 0.639693 -0.455166 0.619368 22 102 105
0.857336 -0.429885 1.14201 0.688123 -0.212825 0.69368 22 103 105
0.886252 -0.409827 1.15678 0.597784 -0.423173 0.680867 23 104 103
0.906838 -0.409311 1.14654 0.390035 -0.362548 0.846423 22 102 104
0.917601 -0.298741 1.13488 0.580748 -0.140609 0.801848 25 108 100
0.969448 -0.0736673 1.1187 0.469342 -0.628361 0.620387 26 113 97
1.00585 -0.0575809 1.10323 0.587985 -0.648583 0.483337 25 111 99
1.001 -0.069077 1.10951 0.479274 -0.640951 0.599565 25 111 98
1.02336 0.132268 1.0858 0.828129 -0.208055 0.520495 24 106 103
1.01894 0.254656 1.06336 0.496106 -0.479125 0.724098 20 97 106
3.32612 0.847993 1.16958 -0.34014 -0.938508 0.0592218 82 81 70
3.3518 0.856257 1.17777 -0.281405 -0.959521 0.011437 100 99 87
3.37305 0.836316 1.16895 -0.342889 -0.936522 -0.0731727 109 108 94
-0.656664 -0.837066 1.0633 -0.366145 -0.867477 0.33678 19 90 104
-0.0637065 -0.968668 1.11795 -0.100362 -0.547281 0.83091 21 100 104
-0.062573 -1.00042 1.12517 0.328468 -0.901681 0.281211 22 102 103
0.340474 -0.927143 1.14779 -0.34149 -0.816556 0.465426 19 87 106
0.566865 -0.775396 1.14559 0.789783 -0.0983574 0.605449 19 83 108
0.579384 -0.73979 1.1374 0.558663 -0.471118 0.682601 19 84 108
0.756977 -0.571162 1.13068 0.362447 -0.596579 0.716049 19 93 108
0.80133 -0.521196 1.12743 0.800456 -0.523642 0.291667 20 97 108
0.799803 -0.530778 1.14175 0.601356 -0.16328 0.782119 20 97 108
0.844333 -0.467517 1.11928 0.664884 -0.169277 0.727513 21 100 106
0.833805 -0.453167 1.13295 0.146696 -0.826441 0.543576 22 101 105
0.887294 -0.459836 1.1227 0.647346 -0.384788 0.657938 20 99 106
0.915791 -0.341309 1.12015 0.645978 -0.6129 0.455044 23 105 103
0.999921 -0.196889 1.09613 0.64004 -0.169698 0.749367 25 107 101
0.990116 -0.178298 1.0991 0.555875 -0.173379 0.812984 25 109 100
0.999952 -0.0735878 1.08388 0.547271 -0.625719 0.555852 25 110 100
1.01618 -0.109752 1.08686 0.56069 -0.404996 0.722223 25 108 101
1.04848 0.0682944 1.06913 0.459399 -0.202135 0.864924 23 104 103
3.35203 0.857376 1.1491 -0.240996 -0.96807 0.0689992 108 107 91
0.0411717 -0.971788 1.11324 -0.277092 -0.784127 0.555306 21 100 104
0.536387 -0.838439 1.1326 0.200928 -0.529882 0.823925 19 85 108
0.531773 -0.822222 1.13668 0.403311 -0.612549 0.679797 19 84 108
0.594098 -0.736739 1.12072 0.511515 -0.29906 0.805553 19 87 108
0.753719 -0.645102 1.12608 0.783941 -0.272568 0.557802 19 91 107
0.80631 -0.514999 1.11204 0.212458 -0.706747 0.674811 19 96 108
0.907229 -0.411412 1.10212 0.854371 -0.197183 0.480801 21 100 106
0.911023 -0.341306 1.10086 0.608554 -0.533896 0.587041 23 104 104
0.942751 -0.350299 1.09123 0.687892 -0.428453 0.58586 22 102 105
0.957439 -0.292435 1.08736 0.674472 -0.352249 0.648852 24 105 103
1.00137 -0.288856 1.08959 0.678893 -0.120852 0.724223 23 103 104
1.07299 0.0245592 1.05429 0.73333 -0.118391 0.669485 22 103 105
1.06673 0.0952485 1.0391 0.792623 -0.103429 0.600876 22 101 106
1.08244 0.111118 1.03708 0.742395 -0.176439 0.646312 21 99 107
1.07201 0.117806 1.04006 0.780712 -0.126418 0.61197 21 100 107
3.35679 0.845546 1.12261 -0.333384 -0.940563 0.0647836 115 114 96
3.36679 0.854697 1.13316 -0.312155 -0.948894 0.0464637 121 120 102
-0.67163 -0.857066 1.01219 -0.141725 -0.712763 0.686937 19 93 104
-0.580512 -0.883942 1.01965 -0.231251 -0.710173 0.664964 20 98 103
-0.164228 -1.00653 1.06878 -0.300337 -0.697499 0.650609 24 107 100
-0.135821 -1.0072 1.07573 0.253389 -0.622184 0.74073 24 105 100
-0.0497424 -1.01906 1.08155 0.0469227 -0.543446 0.838131 24 105 101
0.250507 -0.981902 1.11278 0.53957 -0.780011 0.316933 19 95 106
0.65334 -0.764962 1.10286 0.288513 -0.302877 0.908309 19 92 108
0.726066 -0.737947 1.12097 0.0426576 -0.539356 0.840997 19 95 108
0.758758 -0.679906 1.10357 0.67772 -0.101626 0.728264 19 95 108
0.770956 -0.654721 1.10617 0.486618 -0.408954 0.771985 19 95 108
0.812617 -0.667077 1.10096 0.289855 -0.800171 0.525082 20 97 108
0.822145 -0.650041 1.10061 0.0618391 -0.666431 0.742998 20 98 108
0.84095 -0.590455 1.09507 0.681704 -0.122209 0.721349 19 96 108
0.870437 -0.585149 1.09537 0.700047 -0.148534 0.698479 20 97 107
0.879754 -0.558425 1.09093 0.548002 -0.565699 0.61618 19 96 109
0.891222 -0.481237 1.09265 0.297183 -0.451771 0.841181 19 95 108
0.924696 -0.4284 1.0925 0.463204 -0.728866 0.504179 20 98 108
0.987239 -0.3811 1.07446 0.50139 -0.214624 0.83818 20 98 108
1.0146 -0.302833 1.06619 0.75947 -0.225 0.610393 21 100 106
1.00228 -0.239766 1.0688 0.707318 -0.282274 0.648092 23 104 104
1.04767 -0.25159 1.06229 0.788255 -0.362863 0.496975 22 101 106
1.04448 -0.0846223 1.05193 0.85672 -0.312187 0.410574 23 105 103
1.04633 -0.0594443 1.03329 0.802288 -0.10976 0.586759 23 103 105
1.08691 0.125751 1.02493 0.746237 -0.140714 0.650638 20 97 108
3.28033 0.848844 1.09888 0.0272096 -0.999403 -0.0212706 96 97 83
3.32386 0.843909 1.0986 -0.275949 -0.960045 0.046538 79 79 67
3.34611 0.857139 1.09137 -0.361745 -0.92982 0.0676452 101 100 85
-0.657444 -0.916802 1.00639 -0.106823 -0.971978 0.209397 19 95 103
-0.617958 -0.921799 1.00764 -0.106899 -0.968275 0.225868 21 98 102
-0.311356 -1.0357 1.05702 -0.126495 -0.602762 0.787831 25 109 99
-0.26208 -0.998637 1.05353 -0.271902 -0.746647 0.607114 25 107 100
-0.224903 -1.03763 1.05238 -0.170823 -0.756086 0.631786 25 109 99
-0.157458 -1.07556 1.07469 0.197023 -0.440346 0.875944 26 110 98
-0.0754715 -1.03896 1.06548 -0.228569 -0.704903 0.671467 25 107 100
-0.0695695 -1.02984 1.078 -0.0575951 -0.994858 0.0833066 24 106 100
-0.0501876 -1.03889 1.07139 -0.0808755 -0.993601 0.0788461 24 107 100
-0.0801345 -1.01623 1.05671 -0.419597 -0.840188 0.343544 25 108 100
0.196723 -1.00481 1.07868 0.771536 -0.627312 0.10589 21 99 104
0.364109 -0.964454 1.09583 0.540776 -0.726013 0.424813 19 91 107
0.66692 -0.747285 1.0976 0.431558 -0.345947 0.833114 19 93 108
0.79812 -0.681998 1.09847 0.51035 -0.324494 0.796396 21 99 107
0.857993 -0.601459 1.09341 0.521994 -0.361005 0.772785 20 98 108
0.890887 -0.555335 1.08089 0.517254 -0.518884 0.680593 20 97 109
0.890508 -0.545653 1.0724 0.50937 -0.559731 0.653639 20 97 108
0.894685 -0.515899 1.07883 0.703206 -0.15958 0.692846 19 95 108
0.959672 -0.579823 1.08472 0.394968 -0.440585 0.806155 23 103 106
0.965012 -0.565014 1.0812 0.323725 -0.424193 0.845732 22 102 106
0.955518 -0.556445 1.07296 0.467401 -0.522954 0.71278 22 102 106
0.990825 -0.383103 1.05485 0.308989 -0.43555 0.845472 20 96 109
1.00259 -0.352346 1.04702 0.807092 -0.441464 0.392062 20 97 108
1.01546 -0.327981 1.05518 0.60145 -0.354541 0.715931 20 98 108
1.03358 -0.313206 1.05637 0.460502 -0.59467 0.659019 20 98 108
1.04157 -0.242898 1.03953 0.799583 -0.183943 0.571692 21 100 107
1.06482 -0.258934 1.04829 0.773403 -0.249914 0.582572 20 98 108
1.03532 -0.139832 1.02329 0.661582 -0.251885 0.706303 22 102 105
1.03324 -0.125612 1.02112 0.645933 -0.256755 0.718921 22 102 105
1.04375 -0.146106 1.02436 0.559185 -0.240832 0.793292 22 102 105
1.04327 -0.0959569 1.0154 0.540837 -0.22121 0.811518 22 102 105
