ply
format ascii 1.0
element vertex 1630
property float32 x
property float32 y
property float32 z
property uchar red
property uchar green
property uchar blue
end_header
-0.197	-0.229	1.44	52	192	253
-0.197	-0.234	1.44	52	192	253
-0.197	-0.24	1.44	51	191	252
-0.197	-0.246	1.44	51	191	252
-0.197	-0.252	1.44	51	191	252
-0.197	-0.258	1.44	51	191	252
-0.197	-0.263	1.44	51	191	252
-0.197	-0.269	1.44	51	191	252
-0.197	-0.275	1.44	52	190	252
-0.197	-0.281	1.44	52	190	252
-0.197	-0.287	1.44	51	191	252
-0.197	-0.293	1.44	51	191	252
-0.197	-0.298	1.44	52	192	251
-0.197	-0.304	1.44	51	191	250
-0.197	-0.31	1.44	50	193	251
-0.197	-0.316	1.44	50	193	249
-0.197	-0.322	1.44	50	193	249
-0.197	-0.327	1.44	51	194	250
-0.197	-0.333	1.44	51	195	248
-0.197	-0.339	1.44	51	195	248
-0.197	-0.345	1.44	51	194	250
-0.197	-0.351	1.44	51	194	250
-0.197	-0.357	1.44	51	196	249
-0.197	-0.362	1.44	51	196	249
-0.197	-0.368	1.44	51	197	248
-0.197	-0.374	1.44	51	197	248
-0.199	-0.382	1.4	50	197	248
-0.199	-0.388	1.4	50	197	248
-0.199	-0.394	1.4	51	199	247
-0.199	-0.4	1.4	51	199	247
-0.199	-0.406	1.4	51	199	247
-0.199	-0.411	1.4	51	199	247
-0.199	-0.417	1.4	51	199	245
-0.199	-0.423	1.4	51	199	245
-0.199	-0.429	1.4	50	201	246
-0.199	-0.435	1.4	49	200	245
-0.199	-0.441	1.4	52	201	244
-0.199	-0.447	1.4	52	201	244
-0.199	-0.452	1.4	51	200	243
-0.199	-0.458	1.4	52	201	244
-0.199	-0.464	1.4	52	201	243
-0.199	-0.47	1.4	52	201	241
-0.199	-0.476	1.4	52	201	241
-0.199	-0.482	1.4	54	203	243
-0.199	-0.488	1.4	53	202	242
-0.199	-0.493	1.4	52	202	239
-0.199	-0.499	1.4	53	203	240
-0.2	-0.508	1.36	53	203	238
-0.2	-0.514	1.36	53	203	238
-0.2	-0.52	1.36	53	203	238
-0.2	-0.526	1.36	53	203	238
-0.2	-0.532	1.36	53	203	236
-0.2	-0.538	1.36	53	203	236
-0.2	-0.544	1.36	53	204	235
-0.2	-0.549	1.36	53	204	235
-0.2	-0.555	1.36	53	204	235
-0.2	-0.561	1.36	53	204	235
-0.2	-0.567	1.36	53	204	235
-0.2	-0.573	1.36	54	203	235
-0.2	-0.579	1.36	54	203	233
-0.2	-0.585	1.36	53	202	232
-0.2	-0.591	1.36	53	203	230
-0.2	-0.597	1.36	53	203	230
-0.201	-0.606	1.32	53	203	230
-0.201	-0.612	1.32	53	203	230
-0.201	-0.618	1.32	53	203	230
-0.201	-0.624	1.32	53	203	228
-0.201	-0.63	1.32	53	203	228
-0.201	-0.636	1.32	52	202	227
-0.201	-0.642	1.32	52	202	227
-0.201	-0.648	1.32	52	202	227
-0.201	-0.654	1.32	52	202	227
-0.201	-0.66	1.32	53	202	226
-0.201	-0.665	1.32	53	202	226
-0.201	-0.671	1.32	53	202	226
-0.201	-0.677	1.32	52	201	225
-0.202	-0.688	1.28	52	201	225
-0.202	-0.693	1.28	52	201	223
-0.202	-0.699	1.28	54	200	223
-0.202	-0.705	1.28	54	200	223
-0.202	-0.711	1.28	52	198	221
-0.202	-0.717	1.28	53	199	222
-0.202	-0.723	1.28	52	198	221
-0.202	-0.729	1.28	52	198	221
-0.202	-0.735	1.28	52	198	221
-0.202	-0.741	1.28	51	197	220
-0.202	-0.747	1.28	52	196	220
-0.203	-0.758	1.24	51	195	219
-0.203	-0.764	1.24	51	195	219
-0.203	-0.77	1.24	51	195	219
-0.203	-0.776	1.24	50	194	218
-0.203	-0.782	1.24	50	194	220
-0.203	-0.788	1.24	49	193	219
-0.203	-0.794	1.24	49	193	219
-0.203	-0.8	1.24	51	192	219
-0.203	-0.806	1.24	50	191	218
-0.203	-0.812	1.24	49	190	217
-0.205	-0.823	1.2	48	189	216
-0.205	-0.829	1.2	49	189	216
-0.205	-0.835	1.2	49	189	216
-0.205	-0.841	1.2	49	189	216
-0.205	-0.847	1.2	48	188	215
-0.205	-0.853	1.2	49	189	214
-0.205	-0.859	1.2	47	187	212
-0.205	-0.865	1.2	49	187	213
-0.205	-0.871	1.2	48	186	212
-0.206	-0.883	1.15	48	186	212
-0.206	-0.889	1.15	47	186	209
-0.206	-0.895	1.15	49	185	209
-0.206	-0.901	1.15	48	184	208
-0.206	-0.907	1.15	47	183	207
-0.206	-0.913	1.15	47	183	207
-0.206	-0.919	1.15	46	182	206
-0.206	-0.925	1.15	46	182	206
-0.207	-0.937	1.11	46	180	205
-0.207	-0.943	1.11	46	180	205
-0.207	-0.95	1.11	45	179	204
-0.207	-0.962	1.11	46	178	203
-0.207	-0.974	1.11	44	176	201
-0.209	-0.999	1.07	43	172	201
-0.203	1.07	1.04	41	167	192
-0.202	0.993	1.08	45	177	202
-0.202	0.987	1.08	43	177	202
-0.201	0.975	1.12	44	178	203
-0.201	0.968	1.12	45	179	204
-0.201	0.962	1.12	46	180	205
-0.201	0.956	1.12	46	180	205
-0.201	0.95	1.12	46	180	205
-0.201	0.944	1.12	46	182	206
-0.201	0.938	1.12	46	182	206
-0.199	0.926	1.17	47	183	209
-0.199	0.92	1.17	47	183	209
-0.199	0.914	1.17	47	183	207
-0.199	0.908	1.17	48	184	208
-0.199	0.902	1.17	47	186	207
-0.199	0.896	1.17	48	187	208
-0.199	0.89	1.17	49	190	208
-0.199	0.884	1.17	50	191	209
-0.198	0.872	1.21	51	192	209
-0.198	0.866	1.21	52	193	210
-0.198	0.86	1.21	52	195	209
-0.198	0.854	1.21	52	195	209
-0.198	0.848	1.21	54	198	209
-0.198	0.842	1.21	54	198	209
-0.198	0.836	1.21	53	200	208
-0.198	0.83	1.21	54	201	209
-0.198	0.824	1.21	55	202	209
-0.198	0.818	1.21	56	203	210
-0.197	0.807	1.25	56	205	209
-0.197	0.801	1.25	56	205	209
-0.197	0.795	1.25	56	206	207
-0.197	0.789	1.25	58	208	209
-0.197	0.783	1.25	56	208	209
-0.197	0.777	1.25	57	209	210
-0.197	0.771	1.25	58	211	209
-0.197	0.765	1.25	58	211	209
-0.197	0.759	1.25	58	213	209
-0.197	0.753	1.25	58	213	209
-0.196	0.742	1.29	59	214	210
-0.196	0.736	1.29	60	215	211
-0.196	0.73	1.29	59	216	209
-0.196	0.724	1.29	60	217	210
-0.196	0.718	1.29	60	217	210
-0.196	0.712	1.29	60	217	210
-0.196	0.706	1.29	61	218	209
-0.196	0.701	1.29	62	219	210
-0.196	0.695	1.29	60	220	210
-0.196	0.689	1.29	60	220	210
-0.196	0.683	1.29	60	220	210
-0.196	0.677	1.29	61	221	211
-0.195	0.667	1.34	61	221	211
-0.195	0.661	1.34	62	222	212
-0.195	0.655	1.34	62	224	213
-0.195	0.649	1.34	62	224	213
-0.195	0.643	1.34	62	224	211
-0.195	0.637	1.34	62	224	211
-0.195	0.631	1.34	62	224	211
-0.195	0.625	1.34	63	225	212
-0.195	0.619	1.34	63	225	212
-0.195	0.613	1.34	63	225	212
-0.195	0.607	1.34	64	226	213
-0.195	0.602	1.34	64	226	213
-0.195	0.596	1.34	62	226	215
-0.193	0.586	1.38	63	227	216
-0.193	0.58	1.38	63	227	216
-0.193	0.574	1.38	63	227	216
-0.193	0.568	1.38	63	227	216
-0.193	0.563	1.38	63	227	216
-0.193	0.557	1.38	63	227	216
-0.193	0.551	1.38	64	228	217
-0.193	0.545	1.38	64	228	217
-0.193	0.539	1.38	63	227	216
-0.193	0.533	1.38	63	229	217
-0.193	0.527	1.38	63	229	217
-0.193	0.521	1.38	64	230	218
-0.193	0.516	1.38	64	230	218
-0.193	0.51	1.38	64	230	218
-0.193	0.504	1.38	64	230	218
-0.193	0.498	1.38	64	230	218
-0.193	0.492	1.38	65	231	219
-0.193	0.486	1.38	65	231	219
-0.192	0.477	1.42	65	231	219
-0.192	0.472	1.42	65	231	221
-0.192	0.466	1.42	65	231	221
-0.192	0.46	1.42	65	231	221
-0.192	0.454	1.42	65	231	221
-0.192	0.448	1.42	65	230	223
-0.192	0.442	1.42	65	230	223
-0.192	0.436	1.42	65	230	223
-0.192	0.431	1.42	66	231	224
-0.192	0.425	1.42	65	230	224
-0.192	0.419	1.42	65	230	224
-0.192	0.413	1.42	65	230	226
-0.192	0.407	1.42	65	230	226
-0.192	0.401	1.42	64	230	226
-0.192	0.396	1.42	64	230	226
-0.192	0.39	1.42	63	229	225
-0.192	0.384	1.42	64	230	226
-0.192	0.378	1.42	65	229	228
-0.192	0.372	1.42	65	229	228
-0.192	0.366	1.42	65	229	228
-0.192	0.361	1.42	65	229	228
-0.192	0.355	1.42	64	230	230
-0.192	0.349	1.42	64	230	230
-0.191	0.341	1.46	64	230	230
-0.191	0.335	1.46	64	230	230
-0.191	0.329	1.46	63	228	230
-0.191	0.323	1.46	63	228	230
-0.191	0.318	1.46	63	228	230
-0.191	0.312	1.46	63	228	230
-0.191	0.306	1.46	64	227	232
-0.191	0.3	1.46	64	227	232
-0.191	0.294	1.46	64	227	234
-0.191	0.289	1.46	64	227	234
-0.191	0.283	1.46	62	227	233
-0.191	0.277	1.46	62	227	233
-0.191	0.271	1.46	62	226	235
-0.191	0.265	1.46	62	226	235
-0.191	0.26	1.46	62	226	236
-0.191	0.254	1.46	62	226	236
-0.191	0.248	1.46	63	225	238
-0.191	0.242	1.46	63	225	238
-0.191	0.236	1.46	61	225	237
-0.191	0.231	1.46	61	225	237
-0.191	0.225	1.46	61	224	239
-0.191	0.219	1.46	60	223	238
-0.191	0.213	1.46	61	223	238
-0.191	0.207	1.46	62	224	239
-0.191	0.202	1.46	61	222	240
-0.191	0.196	1.46	61	222	240
-0.191	0.19	1.46	60	223	242
-0.191	0.184	1.46	59	222	241
-0.191	0.178	1.46	60	220	242
-0.191	0.173	1.46	60	220	242
-0.191	0.167	1.46	59	219	243
-0.191	0.161	1.46	59	219	243
-0.191	0.155	1.46	60	220	244
-0.191	0.149	1.46	59	219	243
-0.191	0.144	1.46	59	219	243
-0.191	0.138	1.46	58	218	242
-0.191	0.132	1.46	58	218	244
-0.191	0.126	1.46	58	218	244
-0.191	0.12	1.46	58	217	246
-0.191	0.114	1.46	57	216	245
-0.191	0.109	1.46	58	215	246
-0.191	0.103	1.46	58	215	246
-0.191	0.0971	1.46	56	215	247
-0.191	0.0913	1.46	57	216	248
-0.191	0.0855	1.46	55	214	246
-0.191	0.0797	1.46	56	215	247
-0.191	0.0739	1.46	57	214	249
-0.191	0.068	1.46	56	213	248
-0.191	0.0622	1.46	55	213	250
-0.191	0.0564	1.46	54	212	249
-0.191	0.0506	1.46	55	211	251
-0.191	0.0448	1.46	55	211	251
-0.191	0.039	1.46	54	210	251
-0.191	0.0332	1.46	54	210	251
-0.19	0.0272	1.5	54	209	253
-0.19	0.0215	1.5	54	209	253
-0.19	0.0157	1.5	53	208	252
-0.191	0.00999	1.46	53	208	252
-0.191	0.00418	1.46	52	207	253
-0.191	-0.00162	1.46	52	207	253
-0.19	-0.00738	1.5	54	206	255
-0.19	-0.0132	1.5	53	205	254
-0.191	-0.019	1.46	53	205	254
-0.191	-0.0248	1.46	52	204	253
-0.191	-0.0307	1.46	53	205	255
-0.191	-0.0365	1.46	52	204	254
-0.191	-0.0423	1.46	52	204	254
-0.191	-0.0481	1.46	51	203	253
-0.191	-0.0539	1.46	52	202	255
-0.191	-0.0597	1.46	53	200	254
-0.191	-0.0655	1.46	53	200	254
-0.191	-0.0713	1.46	54	199	254
-0.191	-0.0771	1.46	52	199	253
-0.191	-0.0829	1.46	52	199	253
-0.191	-0.0887	1.46	52	198	255
-0.191	-0.0945	1.46	51	197	254
-0.191	-0.1	1.46	52	197	254
-0.191	-0.106	1.46	52	197	254
-0.191	-0.112	1.46	52	197	254
-0.191	-0.118	1.46	51	196	253
-0.191	-0.124	1.46	52	195	255
-0.191	-0.129	1.46	52	195	255
-0.191	-0.135	1.46	51	194	254
-0.191	-0.141	1.46	51	194	254
-0.191	-0.147	1.46	51	194	254
-0.191	-0.153	1.46	51	194	254
-0.191	-0.158	1.46	53	193	254
-0.191	-0.164	1.46	53	193	254
-0.191	-0.17	1.46	53	193	254
-0.191	-0.176	1.46	53	193	254
-0.191	-0.182	1.46	53	193	254
-0.191	-0.187	1.46	53	193	254
-0.191	-0.193	1.46	53	193	254
-0.191	-0.199	1.46	53	193	254
-0.191	-0.205	1.46	53	193	254
-0.191	-0.211	1.46	52	192	253
-0.191	-0.216	1.46	52	192	253
-0.191	-0.222	1.46	52	192	253
-0.191	-0.228	1.46	52	192	253
-0.191	-0.234	1.46	52	192	253
-0.191	-0.24	1.46	51	191	252
-0.191	-0.245	1.46	51	191	252
-0.191	-0.251	1.46	51	191	252
-0.191	-0.257	1.46	51	191	252
-0.191	-0.263	1.46	51	191	252
-0.191	-0.269	1.46	50	190	251
-0.191	-0.275	1.46	51	189	251
-0.191	-0.28	1.46	52	190	252
-0.191	-0.286	1.46	51	191	252
-0.191	-0.292	1.46	52	192	253
-0.191	-0.298	1.46	51	191	250
-0.191	-0.304	1.46	52	192	251
-0.191	-0.309	1.46	50	193	249
-0.191	-0.315	1.46	50	193	249
-0.191	-0.321	1.46	51	194	250
-0.192	-0.329	1.42	51	194	250
-0.192	-0.335	1.42	51	195	248
-0.192	-0.34	1.42	51	195	248
-0.192	-0.346	1.42	51	194	250
-0.192	-0.352	1.42	52	195	251
-0.192	-0.358	1.42	51	196	249
-0.192	-0.364	1.42	51	196	249
-0.192	-0.37	1.42	51	197	248
-0.192	-0.376	1.42	51	197	248
-0.192	-0.381	1.42	50	197	248
-0.192	-0.387	1.42	51	198	249
-0.192	-0.393	1.42	51	199	247
-0.192	-0.399	1.42	51	199	247
-0.192	-0.405	1.42	51	199	247
-0.192	-0.411	1.42	51	199	247
-0.192	-0.416	1.42	52	200	246
-0.192	-0.422	1.42	52	200	246
-0.192	-0.428	1.42	50	201	246
-0.192	-0.434	1.42	51	202	247
-0.192	-0.44	1.42	51	200	243
-0.192	-0.446	1.42	52	201	244
-0.192	-0.451	1.42	52	201	244
-0.192	-0.457	1.42	52	201	243
-0.193	-0.466	1.38	52	201	241
-0.193	-0.472	1.38	53	202	242
-0.193	-0.478	1.38	53	202	242
-0.193	-0.484	1.38	53	202	242
-0.193	-0.49	1.38	53	203	240
-0.193	-0.495	1.38	53	203	240
-0.193	-0.501	1.38	53	203	238
-0.193	-0.507	1.38	53	203	238
-0.193	-0.513	1.38	53	203	238
-0.193	-0.519	1.38	53	203	238
-0.193	-0.525	1.38	53	203	236
-0.193	-0.531	1.38	53	203	236
-0.193	-0.537	1.38	53	204	235
-0.193	-0.542	1.38	53	204	235
-0.193	-0.548	1.38	53	204	235
-0.193	-0.554	1.38	53	204	235
-0.193	-0.56	1.38	53	204	233
-0.193	-0.566	1.38	53	204	233
-0.195	-0.575	1.34	54	203	233
-0.195	-0.581	1.34	54	203	233
-0.195	-0.587	1.34	54	204	231
-0.195	-0.593	1.34	54	204	231
-0.195	-0.599	1.34	54	204	231
-0.195	-0.605	1.34	54	204	231
-0.195	-0.611	1.34	54	204	231
-0.195	-0.617	1.34	54	204	229
-0.195	-0.623	1.34	53	203	228
-0.195	-0.629	1.34	53	203	228
-0.195	-0.635	1.34	53	203	228
-0.195	-0.64	1.34	53	203	228
-0.195	-0.646	1.34	53	203	228
-0.195	-0.652	1.34	52	202	226
-0.196	-0.662	1.29	53	202	226
-0.196	-0.668	1.29	53	202	226
-0.196	-0.674	1.29	53	202	226
-0.196	-0.68	1.29	52	201	225
-0.196	-0.686	1.29	52	201	223
-0.196	-0.692	1.29	52	201	223
-0.196	-0.698	1.29	54	200	223
-0.196	-0.704	1.29	54	200	223
-0.196	-0.71	1.29	54	200	223
-0.196	-0.716	1.29	54	200	223
-0.196	-0.722	1.29	54	200	223
-0.196	-0.728	1.29	53	199	222
-0.196	-0.734	1.29	52	198	221
-0.197	-0.744	1.25	52	198	221
-0.197	-0.75	1.25	52	196	220
-0.197	-0.756	1.25	52	196	220
-0.197	-0.762	1.25	52	196	220
-0.197	-0.768	1.25	51	195	219
-0.197	-0.774	1.25	51	195	219
-0.197	-0.78	1.25	50	194	218
-0.197	-0.786	1.25	50	194	220
-0.197	-0.792	1.25	49	193	219
-0.197	-0.798	1.25	51	192	219
-0.198	-0.809	1.21	50	191	218
-0.198	-0.815	1.21	50	191	218
-0.198	-0.821	1.21	49	190	217
-0.198	-0.827	1.21	49	189	216
-0.198	-0.833	1.21	49	189	216
-0.198	-0.839	1.21	49	189	216
-0.198	-0.845	1.21	48	188	215
-0.198	-0.852	1.21	47	187	212
-0.198	-0.858	1.21	48	188	213
-0.2	-0.869	1.17	49	187	213
-0.2	-0.875	1.17	48	186	212
-0.2	-0.881	1.17	48	187	210
-0.2	-0.887	1.17	47	186	209
-0.2	-0.893	1.17	49	185	209
-0.2	-0.899	1.17	49	185	209
-0.2	-0.905	1.17	48	184	208
-0.2	-0.911	1.17	47	183	207
-0.201	-0.923	1.12	46	182	206
-0.201	-0.929	1.12	46	182	206
-0.201	-0.936	1.12	47	181	206
-0.201	-0.942	1.12	46	180	205
-0.201	-0.948	1.12	45	179	204
-0.201	-0.954	1.12	46	180	205
-0.201	-0.96	1.12	46	178	203
-0.202	-0.972	1.08	44	176	201
-0.202	-0.978	1.08	45	177	202
-0.195	1.01	1.09	43	173	199
-0.195	0.997	1.09	44	176	201
-0.195	0.991	1.09	45	177	202
-0.195	0.979	1.09	46	178	203
-0.195	0.973	1.09	45	179	204
-0.194	0.96	1.14	45	179	204
-0.194	0.954	1.14	46	180	205
-0.194	0.948	1.14	47	181	206
-0.194	0.942	1.14	47	181	206
-0.194	0.936	1.14	47	181	206
-0.194	0.93	1.14	47	183	209
-0.194	0.924	1.14	47	183	209
-0.193	0.912	1.18	48	184	210
-0.193	0.906	1.18	49	185	209
-0.193	0.9	1.18	48	187	208
-0.193	0.894	1.18	49	188	209
-0.193	0.888	1.18	50	189	208
-0.193	0.882	1.18	51	190	209
-0.193	0.876	1.18	51	192	209
-0.193	0.87	1.18	52	193	210
-0.193	0.864	1.18	52	195	209
-0.192	0.852	1.22	52	195	209
-0.192	0.846	1.22	53	197	208
-0.192	0.84	1.22	54	198	209
-0.192	0.834	1.22	53	200	208
-0.192	0.828	1.22	54	201	209
-0.192	0.822	1.22	55	202	209
-0.192	0.816	1.22	55	202	209
-0.192	0.81	1.22	55	204	208
-0.192	0.804	1.22	56	205	209
-0.191	0.793	1.27	56	205	209
-0.191	0.787	1.27	58	207	211
-0.191	0.781	1.27	55	207	208
-0.191	0.775	1.27	57	209	210
-0.191	0.769	1.27	57	210	208
-0.191	0.763	1.27	58	211	209
-0.191	0.757	1.27	57	211	209
-0.191	0.751	1.27	58	212	210
-0.191	0.745	1.27	59	214	210
-0.191	0.739	1.27	59	214	210
-0.191	0.733	1.27	60	215	211
-0.189	0.723	1.31	60	215	209
-0.189	0.717	1.31	60	217	210
-0.189	0.711	1.31	60	217	208
-0.189	0.705	1.31	60	217	210
-0.189	0.699	1.31	61	218	211
-0.189	0.693	1.31	62	219	212
-0.189	0.687	1.31	62	219	212
-0.189	0.681	1.31	60	220	210
-0.189	0.675	1.31	60	220	210
-0.189	0.669	1.31	61	221	211
-0.189	0.664	1.31	62	222	212
-0.189	0.658	1.31	62	222	214
-0.189	0.652	1.31	62	223	215
-0.188	0.642	1.35	62	224	213
-0.188	0.636	1.35	61	225	214
-0.188	0.63	1.35	63	225	214
-0.188	0.624	1.35	63	225	214
-0.188	0.618	1.35	63	225	214
-0.188	0.612	1.35	63	225	214
-0.188	0.606	1.35	64	226	215
-0.188	0.6	1.35	64	226	215
-0.188	0.594	1.35	64	226	215
-0.188	0.589	1.35	64	226	215
-0.188	0.583	1.35	63	227	216
-0.188	0.577	1.35	63	227	216
-0.188	0.571	1.35	63	227	216
-0.188	0.565	1.35	64	228	217
-0.188	0.559	1.35	64	228	217
-0.187	0.55	1.39	64	228	217
-0.187	0.544	1.39	64	228	217
-0.187	0.538	1.39	64	228	217
-0.187	0.532	1.39	63	229	217
-0.187	0.526	1.39	63	229	217
-0.187	0.52	1.39	64	230	218
-0.187	0.515	1.39	63	229	217
-0.187	0.509	1.39	64	230	218
-0.187	0.503	1.39	64	230	218
-0.187	0.497	1.39	64	230	220
-0.187	0.491	1.39	65	231	221
-0.187	0.485	1.39	65	231	221
-0.187	0.479	1.39	65	231	221
-0.187	0.473	1.39	65	230	223
-0.187	0.468	1.39	65	230	223
-0.187	0.462	1.39	64	229	222
-0.187	0.456	1.39	64	229	222
-0.187	0.45	1.39	65	230	223
-0.186	0.441	1.43	66	231	224
-0.186	0.436	1.43	65	230	224
-0.186	0.43	1.43	65	230	224
-0.186	0.424	1.43	64	229	225
-0.186	0.418	1.43	65	230	226
-0.186	0.412	1.43	65	230	226
-0.186	0.406	1.43	65	230	226
-0.186	0.401	1.43	64	229	225
-0.186	0.395	1.43	64	229	225
-0.186	0.389	1.43	64	228	227
-0.186	0.383	1.43	64	228	227
-0.186	0.377	1.43	64	228	227
-0.186	0.371	1.43	65	229	228
-0.186	0.366	1.43	65	229	228
-0.186	0.36	1.43	65	229	228
-0.186	0.354	1.43	64	230	230
-0.186	0.348	1.43	64	230	230
-0.186	0.342	1.43	63	228	230
-0.186	0.336	1.43	63	228	230
-0.186	0.331	1.43	63	228	230
-0.186	0.325	1.43	63	228	230
-0.186	0.319	1.43	63	228	232
-0.186	0.313	1.43	63	228	232
-0.186	0.307	1.43	64	227	234
-0.186	0.302	1.43	64	227	234
-0.186	0.296	1.43	64	227	234
-0.186	0.29	1.43	63	226	233
-0.185	0.282	1.47	62	226	235
-0.185	0.276	1.47	62	226	235
-0.185	0.271	1.47	62	224	235
-0.185	0.265	1.47	62	224	235
-0.185	0.259	1.47	63	225	236
-0.185	0.253	1.47	63	225	236
-0.185	0.248	1.47	61	225	237
-0.185	0.242	1.47	61	225	237
-0.185	0.236	1.47	61	224	239
-0.185	0.23	1.47	61	224	239
-0.185	0.224	1.47	62	224	239
-0.185	0.219	1.47	61	223	238
-0.185	0.213	1.47	61	222	240
-0.185	0.207	1.47	62	223	241
-0.185	0.201	1.47	61	222	240
-0.185	0.195	1.47	61	222	240
-0.185	0.19	1.47	60	221	241
-0.185	0.184	1.47	60	221	241
-0.185	0.178	1.47	60	220	242
-0.185	0.172	1.47	59	219	241
-0.185	0.166	1.47	59	219	243
-0.185	0.161	1.47	59	219	243
-0.185	0.155	1.47	59	219	243
-0.185	0.149	1.47	59	219	243
-0.185	0.143	1.47	59	219	245
-0.185	0.137	1.47	58	218	244
-0.185	0.132	1.47	58	217	246
-0.185	0.126	1.47	58	217	246
-0.185	0.12	1.47	58	215	246
-0.185	0.114	1.47	58	215	246
-0.185	0.108	1.47	57	216	248
-0.185	0.103	1.47	56	215	247
-0.185	0.0969	1.47	57	216	248
-0.185	0.0911	1.47	56	215	247
-0.185	0.0853	1.47	57	214	249
-0.185	0.0795	1.47	56	213	248
-0.185	0.0737	1.47	56	212	250
-0.185	0.0679	1.47	56	212	250
-0.185	0.0621	1.47	55	211	249
-0.185	0.0563	1.47	55	211	249
-0.185	0.0505	1.47	55	211	251
-0.185	0.0447	1.47	55	211	251
-0.185	0.0389	1.47	55	211	252
-0.185	0.0331	1.47	54	209	253
-0.185	0.0274	1.47	54	209	253
-0.185	0.0216	1.47	53	208	252
-0.185	0.0158	1.47	53	208	254
-0.185	0.00997	1.47	52	207	253
-0.185	0.00418	1.47	54	206	255
-0.185	-0.00162	1.47	54	206	255
-0.185	-0.00741	1.47	53	205	254
-0.185	-0.0132	1.47	53	205	254
-0.185	-0.019	1.47	53	205	255
-0.185	-0.0248	1.47	52	204	254
-0.185	-0.0306	1.47	52	204	254
-0.185	-0.0364	1.47	52	204	254
-0.185	-0.0422	1.47	52	202	253
-0.185	-0.048	1.47	52	202	255
-0.185	-0.0538	1.47	53	200	254
-0.185	-0.0596	1.47	53	200	254
-0.185	-0.0654	1.47	53	200	254
-0.185	-0.0711	1.47	53	200	254
-0.185	-0.0769	1.47	52	198	255
-0.185	-0.0827	1.47	52	198	255
-0.185	-0.0885	1.47	52	197	254
-0.185	-0.0943	1.47	52	197	254
-0.185	-0.1	1.47	52	197	254
-0.185	-0.106	1.47	52	197	254
-0.185	-0.112	1.47	52	195	255
-0.185	-0.118	1.47	52	195	255
-0.185	-0.123	1.47	51	194	254
-0.185	-0.129	1.47	52	195	255
-0.185	-0.135	1.47	53	193	254
-0.185	-0.141	1.47	53	193	254
-0.185	-0.146	1.47	53	193	254
-0.185	-0.152	1.47	53	193	254
-0.185	-0.158	1.47	53	193	254
-0.185	-0.164	1.47	53	193	254
-0.185	-0.17	1.47	53	193	255
-0.185	-0.175	1.47	53	193	255
-0.185	-0.181	1.47	53	193	254
-0.185	-0.187	1.47	53	193	254
-0.185	-0.193	1.47	52	192	253
-0.185	-0.199	1.47	52	192	253
-0.185	-0.204	1.47	52	192	253
-0.185	-0.21	1.47	52	192	253
-0.185	-0.216	1.47	52	192	253
-0.185	-0.222	1.47	52	192	253
-0.185	-0.228	1.47	53	191	253
-0.185	-0.233	1.47	52	190	252
-0.185	-0.239	1.47	52	192	253
-0.185	-0.245	1.47	51	191	252
-0.185	-0.251	1.47	52	190	252
-0.185	-0.257	1.47	52	190	252
-0.185	-0.262	1.47	51	189	251
-0.186	-0.27	1.43	51	189	251
-0.186	-0.276	1.43	51	191	252
-0.186	-0.281	1.43	51	191	252
-0.186	-0.287	1.43	52	192	251
-0.186	-0.293	1.43	52	192	251
-0.186	-0.299	1.43	49	192	250
-0.186	-0.305	1.43	50	193	251
-0.186	-0.311	1.43	50	193	249
-0.186	-0.316	1.43	51	194	250
-0.186	-0.322	1.43	51	194	250
-0.186	-0.328	1.43	52	195	251
-0.186	-0.334	1.43	51	195	248
-0.186	-0.34	1.43	51	195	248
-0.186	-0.346	1.43	51	196	249
-0.186	-0.351	1.43	51	196	249
-0.186	-0.357	1.43	51	196	249
-0.186	-0.363	1.43	51	196	249
-0.186	-0.369	1.43	51	197	248
-0.186	-0.375	1.43	51	197	248
-0.186	-0.381	1.43	51	198	249
-0.186	-0.386	1.43	51	198	249
-0.186	-0.392	1.43	51	199	247
-0.186	-0.398	1.43	51	199	245
-0.186	-0.404	1.43	51	199	247
-0.186	-0.41	1.43	51	199	247
-0.186	-0.416	1.43	50	201	246
-0.186	-0.421	1.43	50	201	246
-0.186	-0.427	1.43	52	201	244
-0.187	-0.436	1.39	51	200	243
-0.187	-0.442	1.39	53	202	245
-0.187	-0.448	1.39	52	201	244
-0.187	-0.453	1.39	52	201	243
-0.187	-0.459	1.39	53	202	244
-0.187	-0.465	1.39	53	202	242
-0.187	-0.471	1.39	53	202	242
-0.187	-0.477	1.39	53	203	240
-0.187	-0.483	1.39	52	202	239
-0.187	-0.489	1.39	53	203	240
-0.187	-0.494	1.39	53	203	240
-0.187	-0.5	1.39	53	203	238
-0.187	-0.506	1.39	53	203	238
-0.187	-0.512	1.39	53	203	236
-0.187	-0.518	1.39	53	203	236
-0.187	-0.524	1.39	54	204	237
-0.187	-0.53	1.39	53	203	236
-0.187	-0.536	1.39	53	204	235
-0.187	-0.541	1.39	54	205	234
-0.188	-0.551	1.35	54	205	234
-0.188	-0.557	1.35	54	205	234
-0.188	-0.562	1.35	54	203	233
-0.188	-0.568	1.35	54	203	233
-0.188	-0.574	1.35	54	204	231
-0.188	-0.58	1.35	54	204	231
-0.188	-0.586	1.35	54	204	231
-0.188	-0.592	1.35	54	204	231
-0.188	-0.598	1.35	54	204	229
-0.188	-0.604	1.35	54	204	229
-0.188	-0.61	1.35	52	204	228
-0.188	-0.616	1.35	53	205	229
-0.188	-0.622	1.35	52	204	228
-0.188	-0.627	1.35	53	205	228
-0.189	-0.637	1.31	53	203	227
-0.189	-0.643	1.31	53	203	227
-0.189	-0.649	1.31	54	203	227
-0.189	-0.655	1.31	54	203	227
-0.189	-0.661	1.31	54	203	227
-0.189	-0.667	1.31	53	202	224
-0.189	-0.673	1.31	53	202	224
-0.189	-0.679	1.31	53	202	224
-0.189	-0.685	1.31	53	202	224
-0.189	-0.691	1.31	53	202	224
-0.189	-0.697	1.31	52	201	223
-0.189	-0.703	1.31	52	201	223
-0.189	-0.709	1.31	51	200	222
-0.191	-0.719	1.27	52	201	223
-0.191	-0.725	1.26	53	200	220
-0.191	-0.731	1.26	53	200	220
-0.191	-0.737	1.26	53	199	222
-0.191	-0.743	1.26	52	198	221
-0.191	-0.749	1.26	52	199	219
-0.191	-0.755	1.26	51	198	218
-0.191	-0.761	1.26	52	197	218
-0.191	-0.767	1.26	52	197	218
-0.191	-0.773	1.26	50	194	218
-0.191	-0.779	1.26	51	195	219
-0.192	-0.79	1.22	52	194	218
-0.192	-0.796	1.22	51	193	217
-0.192	-0.802	1.22	51	193	217
-0.192	-0.808	1.22	50	192	216
-0.192	-0.814	1.22	50	192	216
-0.192	-0.82	1.22	49	191	215
-0.192	-0.826	1.22	50	190	217
-0.192	-0.832	1.22	49	189	216
-0.192	-0.838	1.22	49	189	214
-0.193	-0.849	1.18	49	189	214
-0.193	-0.855	1.18	48	188	213
-0.193	-0.861	1.18	48	188	213
-0.193	-0.867	1.18	49	188	211
-0.193	-0.873	1.18	48	187	210
-0.193	-0.879	1.18	48	187	210
-0.193	-0.885	1.18	47	186	209
-0.193	-0.891	1.18	49	185	209
-0.193	-0.898	1.18	49	185	209
-0.194	-0.909	1.14	48	184	208
-0.194	-0.915	1.14	48	184	208
-0.194	-0.921	1.14	47	183	207
-0.194	-0.928	1.14	46	182	206
-0.194	-0.934	1.14	47	181	206
-0.194	-0.94	1.14	47	181	206
-0.194	-0.946	1.14	46	180	205
-0.195	-0.958	1.09	45	179	204
-0.195	-0.964	1.09	46	178	203
-0.195	-0.995	1.09	44	174	200
-0.191	1.05	1.02	43	168	196
-0.19	1.01	1.06	45	175	201
-0.189	0.995	1.11	45	177	202
-0.189	0.983	1.11	46	178	203
-0.189	0.977	1.11	46	178	203
-0.189	0.971	1.11	45	179	204
-0.189	0.965	1.11	45	179	204
-0.189	0.959	1.11	46	180	205
-0.188	0.946	1.15	47	181	206
-0.188	0.94	1.15	47	181	206
-0.188	0.934	1.15	47	181	206
-0.188	0.928	1.15	47	183	209
-0.188	0.922	1.15	47	183	209
-0.188	0.916	1.15	48	184	210
-0.188	0.91	1.15	49	185	209
-0.188	0.904	1.15	48	187	208
-0.187	0.892	1.19	49	188	209
-0.187	0.886	1.19	50	189	208
-0.187	0.88	1.19	51	190	209
-0.187	0.874	1.19	51	192	209
-0.187	0.868	1.19	52	193	210
-0.187	0.862	1.19	52	195	209
-0.187	0.856	1.19	52	195	209
-0.187	0.85	1.19	53	197	208
-0.185	0.839	1.24	54	198	209
-0.185	0.833	1.24	53	200	208
-0.185	0.827	1.24	54	201	209
-0.185	0.821	1.24	55	202	209
-0.185	0.815	1.24	55	202	209
-0.185	0.809	1.24	55	204	208
-0.185	0.803	1.24	56	205	209
-0.185	0.797	1.24	56	205	209
-0.185	0.791	1.24	57	206	210
-0.185	0.785	1.24	56	208	209
-0.184	0.774	1.28	57	209	210
-0.184	0.768	1.28	57	210	208
-0.184	0.762	1.28	58	211	209
-0.184	0.756	1.28	58	212	210
-0.184	0.75	1.28	58	212	210
-0.184	0.744	1.28	58	213	209
-0.184	0.738	1.28	59	214	210
-0.184	0.732	1.28	59	214	210
-0.184	0.726	1.28	60	215	211
-0.184	0.72	1.28	60	217	210
-0.184	0.714	1.28	60	217	208
-0.183	0.704	1.32	61	218	211
-0.183	0.698	1.32	61	218	211
-0.183	0.692	1.32	61	218	211
-0.183	0.686	1.32	62	219	212
-0.183	0.68	1.32	61	221	211
-0.183	0.674	1.32	60	220	210
-0.183	0.668	1.32	61	221	211
-0.183	0.662	1.32	61	221	211
-0.183	0.656	1.32	62	222	214
-0.183	0.65	1.32	62	222	214
-0.183	0.644	1.32	62	224	213
-0.183	0.638	1.32	60	224	213
-0.183	0.633	1.32	63	225	214
-0.183	0.627	1.32	62	224	213
-0.182	0.617	1.36	63	225	214
-0.182	0.611	1.36	63	225	214
-0.182	0.605	1.36	63	225	214
-0.182	0.599	1.36	64	226	215
-0.182	0.593	1.36	64	226	215
-0.182	0.587	1.36	64	226	215
-0.182	0.582	1.36	63	227	216
-0.182	0.576	1.36	63	227	216
-0.182	0.57	1.36	63	227	218
-0.182	0.564	1.36	63	227	218
-0.182	0.558	1.36	64	228	217
-0.182	0.552	1.36	64	228	217
-0.182	0.546	1.36	64	228	217
-0.182	0.54	1.36	64	228	217
-0.182	0.534	1.36	63	229	217
-0.181	0.525	1.4	63	229	217
-0.181	0.519	1.4	63	229	217
-0.181	0.514	1.4	63	229	217
-0.181	0.508	1.4	64	230	218
-0.181	0.502	1.4	64	230	218
-0.181	0.496	1.4	64	230	220
-0.181	0.49	1.4	64	230	220
-0.181	0.484	1.4	64	230	220
-0.181	0.478	1.4	64	230	220
-0.181	0.473	1.4	64	229	222
-0.181	0.467	1.4	64	229	222
-0.181	0.461	1.4	64	229	222
-0.181	0.455	1.4	64	229	222
-0.181	0.449	1.4	64	229	222
-0.181	0.443	1.4	65	230	223
-0.181	0.437	1.4	65	230	224
-0.181	0.432	1.4	64	229	223
-0.181	0.426	1.4	63	228	224
-0.181	0.42	1.4	64	229	225
-0.181	0.414	1.4	65	230	226
-0.181	0.408	1.4	64	229	225
-0.18	0.4	1.44	64	229	225
-0.18	0.394	1.44	64	229	225
-0.18	0.388	1.44	64	228	227
-0.18	0.382	1.44	64	228	227
-0.18	0.377	1.44	65	229	228
-0.18	0.371	1.44	65	229	228
-0.18	0.365	1.44	65	229	228
-0.18	0.359	1.44	65	229	228
-0.18	0.353	1.44	64	230	230
-0.18	0.347	1.44	63	229	229
-0.18	0.342	1.44	63	228	230
-0.18	0.336	1.44	63	228	230
-0.18	0.33	1.44	63	228	230
-0.18	0.324	1.44	63	228	230
-0.18	0.318	1.44	63	228	232
-0.18	0.313	1.44	63	228	232
-0.18	0.307	1.44	64	227	234
-0.18	0.301	1.44	64	227	234
-0.18	0.295	1.44	63	226	233
-0.18	0.289	1.44	63	226	233
-0.18	0.283	1.44	62	226	235
-0.18	0.278	1.44	62	226	235
-0.18	0.272	1.44	63	225	236
-0.18	0.266	1.44	62	224	235
-0.18	0.26	1.44	63	225	236
-0.18	0.254	1.44	62	224	235
-0.18	0.249	1.44	61	225	237
-0.18	0.243	1.44	61	225	237
-0.18	0.237	1.44	61	224	239
-0.18	0.231	1.44	61	224	239
-0.18	0.225	1.44	61	223	238
-0.179	0.218	1.48	61	223	238
-0.179	0.212	1.48	62	223	241
-0.179	0.207	1.48	61	222	240
-0.179	0.201	1.48	61	222	240
-0.179	0.195	1.48	62	223	241
-0.179	0.189	1.48	60	221	241
-0.179	0.183	1.48	60	221	241
-0.179	0.178	1.48	59	219	241
-0.179	0.172	1.48	59	219	241
-0.179	0.166	1.48	59	219	243
-0.179	0.16	1.48	58	218	242
-0.179	0.155	1.48	59	219	243
-0.179	0.149	1.48	59	219	243
-0.179	0.143	1.48	58	218	244
-0.179	0.137	1.48	59	219	245
-0.179	0.131	1.48	58	217	246
-0.179	0.126	1.48	58	217	246
-0.179	0.12	1.48	58	215	246
-0.179	0.114	1.48	57	214	245
-0.179	0.108	1.48	56	215	247
-0.179	0.102	1.48	55	214	246
-0.179	0.0967	1.48	57	216	248
-0.179	0.0909	1.48	56	215	247
-0.179	0.0851	1.48	56	213	248
-0.179	0.0793	1.48	56	213	248
-0.179	0.0736	1.48	56	212	250
-0.179	0.0678	1.48	56	212	250
-0.179	0.062	1.48	55	211	249
-0.179	0.0562	1.48	55	211	249
-0.179	0.0504	1.48	55	211	251
-0.179	0.0446	1.48	54	210	251
-0.179	0.0389	1.48	54	209	253
-0.179	0.0331	1.48	55	210	254
-0.179	0.0273	1.48	54	209	253
-0.179	0.0215	1.48	54	209	253
-0.179	0.0157	1.48	53	208	254
-0.179	0.00995	1.48	52	207	253
-0.179	0.00417	1.48	54	206	255
-0.179	-0.00161	1.48	54	206	255
-0.179	-0.0074	1.48	53	205	254
-0.179	-0.0132	1.48	53	205	254
-0.179	-0.019	1.48	52	204	254
-0.179	-0.0247	1.48	52	204	254
-0.179	-0.0305	1.48	52	204	254
-0.179	-0.0363	1.48	52	204	254
-0.179	-0.0421	1.48	52	202	255
-0.179	-0.0479	1.48	52	202	255
-0.179	-0.0537	1.48	53	200	254
-0.179	-0.0594	1.48	53	200	254
-0.179	-0.0652	1.48	53	200	254
-0.179	-0.071	1.48	52	199	253
-0.179	-0.0768	1.48	52	198	255
-0.179	-0.0826	1.48	52	198	255
-0.179	-0.0884	1.48	52	197	254
-0.179	-0.0941	1.48	52	197	254
-0.179	-0.0999	1.48	52	197	254
-0.179	-0.106	1.48	51	196	253
-0.179	-0.111	1.48	52	195	255
-0.179	-0.117	1.48	51	194	254
-0.179	-0.123	1.48	51	194	254
-0.179	-0.129	1.48	51	194	254
-0.179	-0.135	1.48	53	193	254
-0.179	-0.14	1.48	53	193	254
-0.179	-0.146	1.48	53	193	254
-0.179	-0.152	1.48	53	193	254
-0.179	-0.158	1.48	53	193	254
-0.179	-0.164	1.48	53	193	254
-0.179	-0.169	1.48	53	193	255
-0.179	-0.175	1.48	52	192	254
-0.179	-0.181	1.48	52	192	253
-0.179	-0.187	1.48	52	192	253
-0.179	-0.192	1.48	52	192	253
-0.179	-0.198	1.48	52	192	253
-0.179	-0.204	1.48	52	192	253
-0.18	-0.211	1.44	52	192	253
-0.18	-0.217	1.44	52	192	253
-0.18	-0.223	1.44	52	192	253
-0.18	-0.229	1.44	52	190	252
-0.18	-0.234	1.44	52	190	252
-0.18	-0.24	1.44	51	191	252
-0.18	-0.246	1.44	51	191	252
-0.18	-0.252	1.44	52	190	252
-0.18	-0.258	1.44	51	189	251
-0.18	-0.263	1.44	52	190	252
-0.18	-0.269	1.44	53	191	253
-0.18	-0.275	1.44	51	191	252
-0.18	-0.281	1.44	52	192	251
-0.18	-0.287	1.44	52	192	251
-0.18	-0.293	1.44	52	192	251
-0.18	-0.298	1.44	50	193	251
-0.18	-0.304	1.44	51	194	252
-0.18	-0.31	1.44	51	194	250
-0.18	-0.316	1.44	51	194	250
-0.18	-0.322	1.44	51	194	250
-0.18	-0.327	1.44	51	194	250
-0.18	-0.333	1.44	52	196	249
-0.18	-0.339	1.44	52	196	249
-0.18	-0.345	1.44	51	196	249
-0.18	-0.351	1.44	51	196	249
-0.18	-0.357	1.44	51	196	249
-0.18	-0.362	1.44	51	197	248
-0.18	-0.368	1.44	52	198	249
-0.18	-0.374	1.44	52	198	249
-0.18	-0.38	1.44	51	198	249
-0.18	-0.386	1.44	51	199	247
-0.181	-0.394	1.4	51	199	247
-0.181	-0.4	1.4	51	199	245
-0.181	-0.406	1.4	52	200	248
-0.181	-0.411	1.4	52	200	246
-0.181	-0.417	1.4	50	201	246
-0.181	-0.423	1.4	50	201	244
-0.181	-0.429	1.4	52	201	244
-0.181	-0.435	1.4	52	201	244
-0.181	-0.441	1.4	53	202	245
-0.181	-0.447	1.4	53	202	244
-0.181	-0.452	1.4	52	201	243
-0.181	-0.458	1.4	53	202	242
-0.181	-0.464	1.4	53	202	242
-0.181	-0.47	1.4	53	203	240
-0.181	-0.476	1.4	53	203	240
-0.181	-0.482	1.4	53	203	240
-0.181	-0.488	1.4	53	203	240
-0.181	-0.493	1.4	54	204	239
-0.181	-0.499	1.4	54	204	239
-0.181	-0.505	1.4	54	204	237
-0.181	-0.511	1.4	54	204	237
-0.182	-0.52	1.36	54	204	237
-0.182	-0.526	1.36	54	204	237
-0.182	-0.532	1.36	54	205	236
-0.182	-0.538	1.36	54	205	234
-0.182	-0.544	1.36	54	205	234
-0.182	-0.55	1.36	54	205	234
-0.182	-0.555	1.36	54	205	234
-0.182	-0.561	1.36	55	204	234
-0.182	-0.567	1.36	55	205	232
-0.182	-0.573	1.36	55	205	232
-0.182	-0.579	1.36	55	205	232
-0.182	-0.585	1.36	55	205	232
-0.182	-0.591	1.36	55	205	230
-0.182	-0.597	1.36	55	205	230
-0.182	-0.603	1.36	55	205	230
-0.183	-0.612	1.32	53	205	229
-0.183	-0.618	1.32	53	205	229
-0.183	-0.624	1.32	53	205	228
-0.183	-0.63	1.32	54	206	229
-0.183	-0.636	1.32	54	204	228
-0.183	-0.642	1.32	54	204	228
-0.183	-0.648	1.32	55	204	228
-0.183	-0.654	1.32	54	203	227
-0.183	-0.66	1.32	54	203	225
-0.183	-0.666	1.32	54	203	225
-0.183	-0.672	1.32	54	203	225
-0.183	-0.678	1.32	53	202	224
-0.183	-0.683	1.32	53	202	224
-0.183	-0.689	1.32	53	202	224
-0.184	-0.7	1.28	52	201	223
-0.184	-0.706	1.28	52	201	223
-0.184	-0.712	1.28	52	201	223
-0.184	-0.718	1.28	51	200	220
-0.184	-0.724	1.28	53	200	220
-0.184	-0.729	1.28	53	200	220
-0.184	-0.735	1.28	53	200	220
-0.184	-0.741	1.28	53	200	220
-0.184	-0.747	1.28	52	199	219
-0.184	-0.753	1.28	51	198	218
-0.184	-0.759	1.28	52	197	218
-0.185	-0.77	1.24	51	196	217
-0.185	-0.776	1.24	51	195	219
-0.185	-0.782	1.24	51	195	219
-0.185	-0.788	1.24	52	194	218
-0.185	-0.794	1.24	51	193	217
-0.185	-0.8	1.24	52	194	218
-0.185	-0.806	1.24	51	193	217
-0.185	-0.812	1.24	50	192	216
-0.185	-0.818	1.24	50	192	216
-0.185	-0.824	1.24	50	190	215
-0.187	-0.835	1.19	49	189	214
-0.187	-0.841	1.19	50	190	215
-0.187	-0.847	1.19	49	189	214
-0.187	-0.853	1.19	49	189	214
-0.187	-0.86	1.19	48	188	213
-0.187	-0.866	1.19	49	188	211
-0.187	-0.872	1.19	48	187	210
-0.187	-0.878	1.19	48	187	210
-0.188	-0.889	1.15	47	186	209
-0.188	-0.895	1.15	49	185	209
-0.188	-0.901	1.15	49	185	209
-0.188	-0.908	1.15	49	185	209
-0.188	-0.914	1.15	48	184	208
-0.188	-0.92	1.15	47	183	207
-0.188	-0.926	1.15	47	183	207
-0.188	-0.932	1.15	47	181	206
-0.189	-0.944	1.11	47	181	206
-0.189	-0.95	1.11	46	180	205
-0.189	-0.956	1.11	45	179	204
-0.189	-0.962	1.11	47	179	204
-0.189	-0.968	1.11	46	178	203
-0.189	-0.974	1.11	45	177	202
-0.189	-0.981	1.11	44	176	201
-0.19	-0.999	1.06	44	174	200
-0.185	1.07	1.03	41	166	194
-0.184	1	1.08	45	177	202
-0.184	0.993	1.08	45	177	202
-0.182	0.981	1.12	45	177	202
-0.182	0.975	1.12	46	178	203
-0.182	0.969	1.12	45	179	204
-0.182	0.963	1.12	46	180	205
-0.182	0.957	1.12	46	180	205
-0.182	0.951	1.12	46	180	205
-0.182	0.944	1.12	47	183	207
-0.181	0.932	1.17	46	182	206
-0.181	0.926	1.17	47	183	207
-0.181	0.92	1.17	47	183	207
-0.181	0.914	1.17	48	184	208
-0.181	0.908	1.17	49	185	209
-0.181	0.902	1.17	48	187	208
-0.181	0.896	1.17	48	189	209
-0.181	0.89	1.17	49	190	208
-0.18	0.878	1.21	50	191	209
-0.18	0.872	1.21	51	192	209
-0.18	0.866	1.21	51	192	209
-0.18	0.86	1.21	52	195	209
-0.18	0.854	1.21	52	195	209
-0.18	0.848	1.21	53	197	208
-0.18	0.842	1.21	54	198	209
-0.18	0.836	1.21	53	200	208
-0.18	0.83	1.21	53	200	208
-0.179	0.819	1.25	56	203	210
-0.179	0.813	1.25	55	202	209
-0.179	0.807	1.25	55	204	208
-0.179	0.801	1.25	56	205	209
-0.179	0.795	1.25	56	205	209
-0.179	0.789	1.25	56	205	209
-0.179	0.783	1.25	56	208	209
-0.179	0.777	1.25	57	209	210
-0.179	0.771	1.25	58	210	211
-0.179	0.765	1.25	58	210	211
-0.178	0.754	1.29	57	211	209
-0.178	0.748	1.29	58	212	210
-0.178	0.742	1.29	59	214	210
-0.178	0.736	1.29	59	214	210
-0.178	0.73	1.29	58	214	210
-0.178	0.725	1.29	59	215	211
-0.178	0.719	1.29	60	217	210
-0.178	0.713	1.29	60	217	210
-0.178	0.707	1.29	60	217	210
-0.178	0.701	1.29	61	218	211
-0.178	0.695	1.29	61	218	211
-0.178	0.689	1.29	62	219	212
-0.178	0.683	1.29	60	220	212
-0.177	0.673	1.33	61	221	213
-0.177	0.667	1.33	61	221	211
-0.177	0.661	1.33	61	221	211
-0.177	0.655	1.33	62	222	212
-0.177	0.649	1.33	62	222	212
-0.177	0.643	1.33	62	224	213
-0.177	0.637	1.33	62	224	213
-0.177	0.631	1.33	62	224	213
-0.177	0.625	1.33	63	225	214
-0.177	0.619	1.33	63	225	212
-0.177	0.614	1.33	63	225	212
-0.177	0.608	1.33	63	225	214
-0.177	0.602	1.33	63	225	214
-0.176	0.592	1.38	63	227	216
-0.176	0.586	1.38	62	226	215
-0.176	0.58	1.38	62	226	215
-0.176	0.574	1.38	63	227	216
-0.176	0.569	1.38	63	227	218
-0.176	0.563	1.38	63	227	218
-0.176	0.557	1.38	63	227	216
-0.176	0.551	1.38	64	228	217
-0.176	0.545	1.38	64	228	219
-0.176	0.539	1.38	64	228	219
-0.176	0.533	1.38	63	229	219
-0.176	0.527	1.38	63	229	219
-0.176	0.522	1.38	64	230	220
-0.176	0.516	1.38	64	230	220
-0.176	0.51	1.38	64	230	220
-0.176	0.504	1.38	64	230	220
-0.176	0.498	1.38	64	230	220
-0.176	0.492	1.38	64	230	220
-0.175	0.483	1.42	64	229	222
-0.175	0.477	1.42	64	229	222
-0.175	0.472	1.42	65	229	222
-0.175	0.466	1.42	65	229	222
-0.175	0.46	1.42	64	229	222
-0.175	0.454	1.42	64	229	222
-0.175	0.448	1.42	64	229	223
-0.175	0.442	1.42	64	229	223
-0.175	0.437	1.42	64	229	223
-0.175	0.431	1.42	64	229	223
-0.175	0.425	1.42	63	229	225
-0.175	0.419	1.42	63	229	225
-0.175	0.413	1.42	64	229	225
-0.175	0.407	1.42	64	229	225
-0.175	0.402	1.42	64	229	225
-0.175	0.396	1.42	64	229	225
-0.175	0.39	1.42	64	228	227
-0.175	0.384	1.42	64	228	227
-0.175	0.378	1.42	64	228	229
-0.175	0.372	1.42	64	228	229
-0.175	0.366	1.42	63	229	229
-0.175	0.361	1.42	63	229	229
-0.174	0.353	1.46	63	228	230
-0.174	0.347	1.46	63	228	230
-0.174	0.341	1.46	63	228	230
-0.174	0.335	1.46	63	228	230
-0.174	0.329	1.46	63	226	231
-0.174	0.324	1.46	64	227	232
-0.174	0.318	1.46	64	227	232
-0.174	0.312	1.46	64	227	232
-0.174	0.306	1.46	64	227	234
-0.174	0.3	1.46	63	226	233
-0.174	0.295	1.46	62	226	235
-0.174	0.289	1.46	62	226	235
-0.174	0.283	1.46	62	226	235
-0.174	0.277	1.46	61	225	234
-0.174	0.271	1.46	62	224	235
-0.174	0.265	1.46	63	225	236
-0.174	0.26	1.46	61	225	237
-0.174	0.254	1.46	61	225	237
-0.174	0.248	1.46	61	225	237
-0.174	0.242	1.46	61	225	237
-0.174	0.236	1.46	61	223	238
-0.174	0.231	1.46	61	223	238
-0.174	0.225	1.46	61	222	240
-0.174	0.219	1.46	62	223	241
-0.174	0.213	1.46	61	222	240
-0.174	0.207	1.46	61	222	240
-0.174	0.202	1.46	60	223	242
-0.174	0.196	1.46	59	222	241
-0.174	0.19	1.46	60	220	242
-0.174	0.184	1.46	59	219	241
-0.174	0.178	1.46	58	218	240
-0.174	0.173	1.46	59	219	241
-0.174	0.167	1.46	59	219	243
-0.174	0.161	1.46	59	219	243
-0.174	0.155	1.46	58	218	244
-0.174	0.149	1.46	58	218	244
-0.174	0.144	1.46	58	217	246
-0.174	0.138	1.46	58	217	246
-0.174	0.132	1.46	58	217	246
-0.174	0.126	1.46	57	216	245
-0.174	0.12	1.46	57	216	246
-0.174	0.115	1.46	56	215	245
-0.174	0.109	1.46	56	215	247
-0.173	0.102	1.5	57	216	248
-0.173	0.0965	1.5	56	215	247
-0.173	0.0907	1.5	56	215	247
-0.173	0.085	1.5	56	213	248
-0.173	0.0792	1.5	56	213	248
-0.173	0.0734	1.5	55	213	250
-0.173	0.0676	1.5	54	212	249
-0.173	0.0619	1.5	55	211	251
-0.173	0.0561	1.5	55	211	251
-0.173	0.0503	1.5	54	210	251
-0.173	0.0446	1.5	54	210	251
-0.173	0.0388	1.5	53	210	253
-0.173	0.033	1.5	53	210	253
-0.173	0.0272	1.5	53	208	254
-0.173	0.0215	1.5	53	208	254
-0.173	0.0157	1.5	52	207	253
-0.173	0.00993	1.5	52	207	253
-0.173	0.00416	1.5	54	206	255
-0.173	-0.00161	1.5	54	206	255
-0.173	-0.00738	1.5	53	205	255
-0.173	-0.0132	1.5	53	205	255
-0.173	-0.0189	1.5	50	204	254
-0.173	-0.0247	1.5	50	204	254
-0.173	-0.0305	1.5	52	204	254
-0.173	-0.0362	1.5	51	203	253
-0.173	-0.042	1.5	52	202	255
-0.173	-0.0478	1.5	51	201	254
-0.173	-0.0536	1.5	53	200	254
-0.173	-0.0593	1.5	53	200	254
-0.173	-0.0651	1.5	52	199	253
-0.173	-0.0709	1.5	52	199	253
-0.173	-0.0766	1.5	52	198	255
-0.173	-0.0824	1.5	52	198	255
-0.173	-0.0882	1.5	52	197	254
-0.174	-0.0945	1.46	52	197	254
-0.174	-0.1	1.46	53	196	255
-0.174	-0.106	1.46	52	195	255
-0.173	-0.111	1.5	52	195	255
-0.174	-0.118	1.46	51	194	254
-0.174	-0.124	1.46	53	193	254
-0.174	-0.129	1.46	53	193	254
-0.174	-0.135	1.46	53	193	254
-0.174	-0.141	1.46	53	193	254
-0.174	-0.147	1.46	52	192	253
-0.174	-0.153	1.46	52	192	253
-0.174	-0.158	1.46	52	192	253
-0.174	-0.164	1.46	52	192	253
-0.174	-0.17	1.46	52	192	253
-0.174	-0.176	1.46	52	192	253
-0.174	-0.182	1.46	53	191	253
-0.174	-0.187	1.46	53	191	253
-0.174	-0.193	1.46	52	192	253
-0.174	-0.199	1.46	52	192	253
-0.174	-0.205	1.46	52	192	253
-0.174	-0.211	1.46	52	192	253
-0.174	-0.216	1.46	52	190	252
-0.174	-0.222	1.46	52	190	252
-0.174	-0.228	1.46	51	191	252
-0.174	-0.234	1.46	51	191	252
-0.174	-0.24	1.46	51	191	253
-0.174	-0.246	1.46	50	190	252
-0.174	-0.251	1.46	50	190	251
-0.174	-0.257	1.46	51	191	252
-0.174	-0.263	1.46	51	191	252
-0.174	-0.269	1.46	51	191	252
-0.174	-0.275	1.46	52	192	251
-0.174	-0.28	1.46	52	192	251
-0.174	-0.286	1.46	50	193	251
-0.174	-0.292	1.46	50	193	249
-0.174	-0.298	1.46	50	193	249
-0.174	-0.304	1.46	51	194	250
-0.174	-0.309	1.46	51	194	250
-0.174	-0.315	1.46	51	194	250
-0.174	-0.321	1.46	50	195	250
-0.174	-0.327	1.46	51	196	251
-0.174	-0.333	1.46	51	196	251
-0.174	-0.338	1.46	51	196	251
-0.175	-0.346	1.42	51	196	249
-0.175	-0.352	1.42	50	195	248
-0.175	-0.358	1.42	50	197	248
-0.175	-0.364	1.42	51	198	249
-0.175	-0.37	1.42	51	198	249
-0.175	-0.376	1.42	51	199	247
-0.175	-0.381	1.42	51	199	247
-0.175	-0.387	1.42	51	199	247
-0.175	-0.393	1.42	51	199	247
-0.175	-0.399	1.42	52	200	248
-0.175	-0.405	1.42	52	200	246
-0.175	-0.411	1.42	52	200	246
-0.175	-0.417	1.42	50	201	246
-0.175	-0.422	1.42	50	201	244
-0.175	-0.428	1.42	52	201	244
-0.175	-0.434	1.42	53	202	244
-0.175	-0.44	1.42	53	202	244
-0.175	-0.446	1.42	53	202	244
-0.175	-0.452	1.42	51	203	244
-0.175	-0.457	1.42	51	203	242
-0.175	-0.463	1.42	54	203	243
-0.175	-0.469	1.42	53	203	240
-0.175	-0.475	1.42	53	203	240
-0.176	-0.484	1.38	53	203	238
-0.176	-0.49	1.38	54	204	239
-0.176	-0.496	1.38	54	204	239
-0.176	-0.501	1.38	54	204	239
-0.176	-0.507	1.38	54	204	237
-0.176	-0.513	1.38	54	204	237
-0.176	-0.519	1.38	54	205	236
-0.176	-0.525	1.38	54	205	236
-0.176	-0.531	1.38	54	205	236
-0.176	-0.537	1.37	54	205	234
-0.176	-0.543	1.37	54	205	234
-0.176	-0.548	1.37	54	205	232
-0.176	-0.554	1.37	54	205	232
-0.176	-0.56	1.37	54	205	232
-0.176	-0.566	1.37	54	205	232
-0.176	-0.572	1.37	54	205	232
-0.176	-0.578	1.37	54	206	230
-0.177	-0.587	1.33	54	206	230
-0.177	-0.593	1.33	54	206	230
-0.177	-0.599	1.33	55	205	230
-0.177	-0.605	1.33	55	205	229
-0.177	-0.611	1.33	55	205	229
-0.177	-0.617	1.33	55	205	229
-0.177	-0.623	1.33	54	204	228
-0.177	-0.629	1.33	54	204	228
-0.177	-0.635	1.33	53	204	225
-0.177	-0.641	1.33	54	205	226
-0.177	-0.647	1.33	54	205	226
-0.177	-0.652	1.33	54	205	226
-0.177	-0.658	1.33	53	204	225
-0.177	-0.664	1.33	54	205	226
-0.178	-0.674	1.29	53	204	223
-0.178	-0.68	1.29	53	204	223
-0.178	-0.686	1.29	54	203	223
-0.178	-0.692	1.29	53	202	222
-0.178	-0.698	1.29	53	202	222
-0.178	-0.704	1.29	53	202	222
-0.178	-0.71	1.29	52	201	221
-0.178	-0.716	1.29	52	201	221
-0.178	-0.722	1.29	51	200	220
-0.178	-0.728	1.29	51	201	218
-0.178	-0.734	1.29	53	200	218
-0.178	-0.74	1.29	53	200	220
-0.179	-0.751	1.25	53	200	220
-0.179	-0.757	1.25	52	199	219
-0.179	-0.763	1.25	52	199	219
-0.179	-0.769	1.25	51	198	218
-0.179	-0.775	1.25	52	197	218
-0.179	-0.781	1.25	51	196	217
-0.179	-0.787	1.25	50	195	216
-0.179	-0.793	1.25	50	195	216
-0.179	-0.799	1.25	52	194	216
-0.179	-0.805	1.25	52	194	216
-0.18	-0.816	1.21	50	192	214
-0.18	-0.822	1.21	50	192	214
-0.18	-0.828	1.21	50	190	213
-0.18	-0.834	1.21	50	190	215
-0.18	-0.84	1.21	49	191	215
-0.18	-0.846	1.21	48	190	214
-0.18	-0.852	1.21	49	189	212
-0.18	-0.858	1.21	48	188	211
-0.18	-0.864	1.21	48	187	210
-0.181	-0.875	1.16	48	187	210
-0.181	-0.881	1.16	48	187	210
-0.181	-0.887	1.16	48	187	210
-0.181	-0.894	1.16	47	186	207
-0.181	-0.9	1.16	47	186	207
-0.181	-0.906	1.16	49	185	207
-0.181	-0.912	1.16	49	185	207
-0.181	-0.918	1.16	48	184	206
-0.182	-0.93	1.12	47	183	205
-0.182	-0.936	1.12	47	182	204
-0.182	-0.942	1.12	46	181	203
-0.182	-0.948	1.12	47	182	204
-0.182	-0.954	1.12	45	180	202
-0.182	-0.96	1.12	45	180	202
-0.182	-0.966	1.12	44	179	201
-0.184	-0.979	1.08	45	177	200
-0.184	-0.985	1.08	45	177	200
-0.177	1.01	1.09	44	174	198
-0.177	0.998	1.09	45	177	202
-0.177	0.991	1.09	45	177	202
-0.177	0.985	1.09	46	178	203
-0.177	0.979	1.09	46	178	203
-0.176	0.967	1.14	45	179	204
-0.176	0.961	1.14	46	180	205
-0.176	0.955	1.14	46	180	205
-0.176	0.949	1.14	47	181	206
-0.176	0.943	1.14	46	182	206
-0.176	0.936	1.14	46	182	206
-0.176	0.93	1.14	47	183	207
-0.175	0.918	1.18	47	183	207
-0.175	0.912	1.18	48	184	208
-0.175	0.906	1.18	46	185	208
-0.175	0.9	1.18	48	187	208
-0.175	0.894	1.18	48	189	209
-0.175	0.888	1.18	49	190	208
-0.175	0.882	1.18	50	191	209
-0.175	0.876	1.18	51	192	209
-0.175	0.87	1.18	52	193	210
-0.174	0.859	1.22	52	195	209
-0.174	0.853	1.22	52	195	209
-0.174	0.847	1.22	53	197	208
-0.174	0.84	1.22	54	198	209
-0.174	0.834	1.22	53	200	208
-0.174	0.828	1.22	54	201	209
-0.174	0.822	1.22	55	202	209
-0.174	0.816	1.22	55	202	209
-0.174	0.81	1.22	54	203	207
-0.173	0.799	1.26	56	205	209
-0.173	0.793	1.26	56	205	209
-0.173	0.787	1.26	57	206	210
-0.173	0.781	1.26	55	207	208
-0.173	0.775	1.26	56	208	209
-0.173	0.769	1.26	58	210	211
-0.173	0.763	1.26	58	210	211
-0.173	0.758	1.26	57	211	209
-0.173	0.752	1.26	58	212	210
-0.173	0.746	1.26	58	213	209
-0.173	0.74	1.26	59	214	210
-0.172	0.729	1.31	58	214	210
-0.172	0.723	1.31	59	215	211
-0.172	0.717	1.31	60	217	210
-0.172	0.711	1.31	60	217	210
-0.172	0.705	1.31	60	217	210
-0.172	0.699	1.31	61	218	211
-0.172	0.693	1.31	61	218	211
-0.172	0.687	1.31	62	219	212
-0.172	0.682	1.31	60	220	212
-0.172	0.676	1.31	61	221	213
-0.172	0.67	1.31	61	221	211
-0.172	0.664	1.31	61	221	211
-0.17	0.654	1.35	61	221	211
-0.17	0.648	1.35	62	222	212
-0.17	0.642	1.35	61	223	212
-0.17	0.636	1.35	61	223	212
-0.17	0.63	1.35	62	224	213
-0.17	0.624	1.35	63	225	214
-0.17	0.618	1.35	63	225	212
-0.17	0.612	1.35	63	225	212
-0.17	0.606	1.35	63	225	214
-0.17	0.601	1.35	63	225	214
-0.17	0.595	1.35	61	225	214
-0.17	0.589	1.35	62	226	215
-0.17	0.583	1.35	62	226	215
-0.171	0.577	1.35	62	226	215
-0.171	0.571	1.35	62	226	217
-0.169	0.562	1.39	63	227	218
-0.169	0.556	1.39	63	227	216
-0.169	0.55	1.39	63	227	216
-0.169	0.544	1.39	64	228	219
-0.169	0.538	1.39	64	228	219
-0.169	0.532	1.39	63	229	219
-0.169	0.526	1.39	63	229	219
-0.169	0.521	1.39	63	229	219
-0.169	0.515	1.39	63	229	219
-0.169	0.509	1.39	63	229	219
-0.169	0.503	1.39	64	230	220
-0.169	0.497	1.39	64	230	220
-0.169	0.491	1.39	64	230	220
-0.169	0.485	1.39	64	229	222
-0.169	0.479	1.39	64	229	222
-0.169	0.474	1.39	65	229	222
-0.169	0.468	1.39	65	229	222
-0.169	0.462	1.39	64	229	222
-0.169	0.456	1.39	64	229	222
-0.168	0.447	1.43	64	229	223
-0.168	0.442	1.43	64	229	223
-0.168	0.436	1.43	64	229	223
-0.168	0.43	1.43	64	229	223
-0.168	0.424	1.43	63	229	225
-0.168	0.418	1.43	63	229	225
-0.168	0.412	1.43	64	229	225
-0.168	0.407	1.43	64	229	225
-0.168	0.401	1.43	64	229	225
-0.168	0.395	1.43	64	229	225
-0.168	0.389	1.43	64	228	227
-0.168	0.383	1.43	64	228	227
-0.168	0.377	1.43	64	228	229
-0.168	0.372	1.43	64	228	229
-0.168	0.366	1.43	63	229	229
-0.168	0.36	1.43	63	229	229
-0.168	0.354	1.43	63	228	230
-0.168	0.348	1.43	63	228	230
-0.168	0.342	1.43	62	227	229
-0.168	0.337	1.43	63	228	230
-0.168	0.331	1.43	64	227	232
-0.168	0.325	1.43	64	227	232
-0.168	0.319	1.43	64	227	232
-0.168	0.313	1.43	64	227	232
-0.168	0.307	1.43	63	226	233
-0.167	0.3	1.47	63	226	233
-0.167	0.294	1.47	61	225	234
-0.167	0.288	1.47	62	226	235
-0.167	0.282	1.47	61	225	234
-0.167	0.277	1.47	61	225	234
-0.167	0.271	1.47	63	225	236
-0.167	0.265	1.47	62	224	235
-0.167	0.259	1.47	61	225	237
-0.167	0.253	1.47	61	225	237
-0.167	0.248	1.47	60	224	236
-0.167	0.242	1.47	60	224	236
-0.167	0.236	1.47	61	223	238
-0.167	0.23	1.47	61	223	238
-0.167	0.224	1.47	61	222	240
-0.167	0.219	1.47	61	222	240
-0.167	0.213	1.47	61	222	240
-0.167	0.207	1.47	61	222	240
-0.167	0.201	1.47	60	223	242
-0.167	0.195	1.47	59	222	241
-0.167	0.19	1.47	60	220	242
-0.167	0.184	1.47	59	219	241
-0.167	0.178	1.47	59	219	241
-0.167	0.172	1.47	59	219	241
-0.167	0.166	1.47	59	219	243
-0.167	0.161	1.47	58	218	242
-0.167	0.155	1.47	58	218	244
-0.167	0.149	1.47	58	218	244
-0.167	0.143	1.47	58	217	246
-0.167	0.137	1.47	58	217	246
-0.167	0.132	1.47	58	217	246
-0.167	0.126	1.47	57	216	245
-0.167	0.12	1.47	57	216	246
-0.167	0.114	1.47	56	215	245
-0.167	0.108	1.47	56	215	247
-0.167	0.103	1.47	56	215	247
-0.167	0.0969	1.47	55	214	246
-0.167	0.0911	1.47	55	214	246
-0.167	0.0853	1.47	56	213	248
-0.167	0.0795	1.47	56	213	248
-0.167	0.0737	1.47	54	212	249
-0.167	0.0679	1.47	54	212	249
-0.167	0.0621	1.47	55	211	251
-0.167	0.0563	1.47	54	210	250
-0.167	0.0505	1.47	54	210	251
-0.167	0.0447	1.47	54	210	251
-0.167	0.0389	1.47	53	210	253
-0.167	0.0332	1.47	52	209	252
-0.167	0.0274	1.47	53	208	254
-0.167	0.0216	1.47	52	207	253
-0.167	0.0158	1.47	52	207	253
-0.167	0.00997	1.47	52	207	253
-0.167	0.00418	1.47	54	206	255
-0.167	-0.00162	1.47	53	205	254
-0.167	-0.00741	1.47	53	205	255
-0.167	-0.0132	1.47	52	204	254
-0.167	-0.019	1.47	50	204	254
-0.167	-0.0248	1.47	50	204	254
-0.167	-0.0306	1.47	52	204	254
-0.167	-0.0364	1.47	51	203	253
-0.167	-0.0422	1.47	51	201	254
-0.167	-0.048	1.47	51	201	254
-0.167	-0.0538	1.47	53	200	254
-0.167	-0.0596	1.47	53	200	254
-0.167	-0.0654	1.47	52	199	253
-0.167	-0.0712	1.47	52	199	253
-0.167	-0.077	1.47	52	198	255
-0.167	-0.0828	1.47	51	197	254
-0.167	-0.0885	1.47	52	197	254
-0.167	-0.0943	1.47	52	197	254
-0.167	-0.1	1.47	52	195	255
-0.167	-0.106	1.47	52	195	255
-0.167	-0.112	1.47	51	194	254
-0.167	-0.118	1.47	51	194	254
-0.167	-0.123	1.47	53	193	254
-0.167	-0.129	1.47	53	193	254
-0.167	-0.135	1.47	52	192	253
-0.167	-0.141	1.47	52	192	253
-0.167	-0.147	1.47	52	192	253
-0.167	-0.152	1.47	52	192	253
-0.167	-0.158	1.47	52	192	253
-0.167	-0.164	1.47	52	192	253
-0.167	-0.17	1.47	52	192	253
-0.167	-0.175	1.47	52	192	253
-0.167	-0.181	1.47	53	191	253
-0.167	-0.187	1.47	53	191	253
-0.167	-0.193	1.47	52	192	253
-0.167	-0.199	1.47	52	192	253
-0.167	-0.204	1.47	52	192	253
-0.167	-0.21	1.47	51	191	252
-0.167	-0.216	1.47	52	190	252
-0.167	-0.222	1.47	52	190	252
-0.167	-0.228	1.47	51	191	252
-0.167	-0.233	1.47	51	191	252
-0.167	-0.239	1.47	51	191	253
-0.167	-0.245	1.47	50	190	252
-0.167	-0.251	1.47	50	190	251
-0.167	-0.257	1.47	51	191	252
-0.167	-0.262	1.47	51	191	252
-0.167	-0.268	1.47	52	192	253
-0.167	-0.274	1.47	52	192	251
-0.167	-0.28	1.47	52	192	251
-0.167	-0.286	1.47	50	193	249
